ply
format ascii 1.0
comment PCL generated
element vertex 1036
property float x
property float y
property float z
property float nx
property float ny
property float nz
property float curvature
element camera 0
property float view_px
property float view_py
property float view_pz
property float x_axisx
property float x_axisy
property float x_axisz
property float y_axisx
property float y_axisy
property float y_axisz
property float z_axisx
property float z_axisy
property float z_axisz
property float focal
property float scalex
property float scaley
property float centerx
property float centery
property int viewportx
property int viewporty
property float k1
property float k2
end_header
0.002820174 0.010275871 -0.0054792897 0 0 0 0
0.00313506 0.01029423 -0.00543429 0 0 0 0
0.0034518901 0.010306381 -0.0053906399 0 0 0 0
0.0037666499 0.0103215 -0.0053475304 0 0 0 0
0.0040682703 0.01031187 -0.0052817399 0 0 0 0
0.0044194502 0.01042011 -0.00529734 0 0 0 0
0.0046809902 0.01056108 -0.0052361698 0 0 0 0
-0.01299054 0.01028196 -0.00801381 0 0 0 0
-0.012745529 0.0101739 -0.0078656403 0 0 0 0
-0.012485821 0.01008924 -0.0077346601 0 0 0 0
-0.01219824 0.01005351 -0.0076447502 0 0 0 0
-0.01188582 0.01006614 -0.0075961198 0 0 0 0
-0.011587139 0.01005462 -0.0075255902 0 0 0 0
-0.01127367 0.01006728 -0.0074764499 0 0 0 0
-0.010974869 0.010055791 -0.0074060704 0 0 0 0
-0.01066143 0.01006854 -0.0073557901 0 0 0 0
-0.01034835 0.010081139 -0.00730662 0 0 0 0
-0.010048769 0.010069679 -0.0072375 0 0 0 0
-0.0097357798 0.01008234 -0.0071866196 0 0 0 0
-0.0094375499 0.01007085 -0.0071177101 0 0 0 0
-0.00912333 0.01008348 -0.0070680003 0 0 0 0
-0.0088238399 0.01007223 -0.0069975001 0 0 0 0
-0.0085120806 0.01008471 -0.0069488697 0 0 0 0
-0.0082115699 0.01007331 -0.0068787001 0 0 0 0
-0.0078990897 0.010086061 -0.00682875 0 0 0 0
-0.0075867297 0.01009869 -0.0067795496 0 0 0 0
-0.0072735301 0.010111591 -0.0067288498 0 0 0 0
-0.0069749104 0.010100041 -0.0066596097 0 0 0 0
-0.0066751498 0.01008849 -0.0065901601 0 0 0 0
-0.0063616801 0.01010112 -0.00654063 0 0 0 0
-0.0060486603 0.01011384 -0.0064903796 0 0 0 0
-0.0057504904 0.01010253 -0.0064206603 0 0 0 0
-0.00542355 0.01013931 -0.0063912002 0 0 0 0
-0.0051106499 0.01015176 -0.0063420599 0 0 0 0
-0.0048108599 0.01014045 -0.0062722503 0 0 0 0
-0.0044858097 0.01017726 -0.00624255 0 0 0 0
-0.00418599 0.01016592 -0.00617223 0 0 0 0
-0.0038735999 0.010178491 -0.0061230301 0 0 0 0
-0.0035601899 0.010191389 -0.00607272 0 0 0 0
-0.00324756 0.01020396 -0.0060232501 0 0 0 0
-0.0029476921 0.010192379 -0.0059538595 0 0 0 0
-0.002635173 0.010205369 -0.0059032799 0 0 0 0
-0.00232263 0.01021791 -0.00585387 0 0 0 0
-0.002023305 0.01020624 -0.0057848101 0 0 0 0
-0.001722801 0.010194751 -0.0057149697 0 0 0 0
-0.001410117 0.010207471 -0.0056654699 0 0 0 0
-0.001084302 0.01024428 -0.0056356797 0 0 0 0
-0.00078519603 0.01023306 -0.0055651502 0 0 0 0
-0.00047124599 0.01024545 -0.0055160401 0 0 0 0
-0.00017321939 0.01023402 -0.0054465299 0 0 0 0
0.0001262085 0.01022274 -0.0053762104 0 0 0 0
0.00043958699 0.01023501 -0.0053276401 0 0 0 0
0.00075199502 0.010248121 -0.0052766399 0 0 0 0
0.001064964 0.010260571 -0.0052275602 0 0 0 0
0.001364277 0.01024917 -0.0051573599 0 0 0 0
0.0016647209 0.01023729 -0.0050884802 0 0 0 0
0.001963143 0.010225889 -0.0050185197 0 0 0 0
0.002275872 0.01023864 -0.0049683 0 0 0 0
0.0025756441 0.01022706 -0.0048989998 0 0 0 0
0.0029054552 0.010267319 -0.0048773098 0 0 0 0
0.00320784 0.01025769 -0.0048104697 0 0 0 0
0.0035512501 0.010322969 -0.0048102299 0 0 0 0
0.0038531702 0.01031328 -0.0047454596 0 0 0 0
0.0041692201 0.01032861 -0.0047007604 0 0 0 0
0.0044847899 0.01034415 -0.0046562999 0 0 0 0
0.0048198299 0.01047579 -0.0046683899 0 0 0 0
0.0050766901 0.010646969 -0.00463566 0 0 0 0
-0.02622807 0.0334698 0.01136067 0 0 0 0
-0.01319598 0.01028865 -0.0075010201 0 0 0 0
-0.01299 0.01010709 -0.0072917999 0 0 0 0
-0.012702569 0.01007118 -0.00720153 0 0 0 0
-0.01240338 0.01005975 -0.0071323202 0 0 0 0
-0.012090961 0.010072471 -0.00708225 0 0 0 0
-0.01179207 0.0100611 -0.00701151 0 0 0 0
-0.01147866 0.010073761 -0.00696267 0 0 0 0
-0.01117989 0.010062301 -0.0068928599 0 0 0 0
-0.010866511 0.01007511 -0.0068433299 0 0 0 0
-0.01055361 0.01008795 -0.0067921197 0 0 0 0
-0.01025397 0.01007661 -0.0067227301 0 0 0 0
-0.0099411597 0.01008942 -0.0066730799 0 0 0 0
-0.0096278396 0.01010211 -0.0066237301 0 0 0 0
-0.0093162898 0.01011519 -0.0065734801 0 0 0 0
-0.0090022497 0.01012767 -0.00652452 0 0 0 0
-0.0086773196 0.0101652 -0.00649371 0 0 0 0
-0.0083637601 0.010177949 -0.0064438502 0 0 0 0
-0.0080647198 0.01016646 -0.0063744602 0 0 0 0
-0.0077521796 0.010179359 -0.0063246298 0 0 0 0
-0.0074258102 0.010216709 -0.0062943902 0 0 0 0
-0.0071121003 0.01022937 -0.0062446496 0 0 0 0
-0.0068003698 0.01024188 -0.0061952705 0 0 0 0
-0.0064878897 0.01025484 -0.0061453204 0 0 0 0
-0.0061741797 0.01026783 -0.0060950099 0 0 0 0
-0.0058744503 0.010256009 -0.0060259504 0 0 0 0
-0.0055626901 0.01026876 -0.0059762402 0 0 0 0
-0.0052497596 0.010281 -0.0059269499 0 0 0 0
-0.00493614 0.010294169 -0.0058766999 0 0 0 0
-0.0046239002 0.01030734 -0.0058263899 0 0 0 0
-0.0043248301 0.010295641 -0.0057570902 0 0 0 0
-0.0040110601 0.010308331 -0.00570729 0 0 0 0
-0.00369843 0.01032156 -0.0056571001 0 0 0 0
-0.00338562 0.01033419 -0.00560715 0 0 0 0
-0.0030861599 0.01032228 -0.0055380901 0 0 0 0
-0.0027732661 0.01033578 -0.0054876297 0 0 0 0
-0.002460432 0.010347839 -0.0054383404 0 0 0 0
-0.0021606449 0.010337129 -0.0053679897 0 0 0 0
-0.0018482941 0.010349009 -0.0053190896 0 0 0 0
-0.001535289 0.01036194 -0.0052691698 0 0 0 0
-0.0012233369 0.01037544 -0.0052187401 0 0 0 0
-0.000922965 0.01036329 -0.00514956 0 0 0 0
-0.000611016 0.01037631 -0.0050996398 0 0 0 0
-0.00029828522 0.01038972 -0.0050491802 0 0 0 0
1.295841e-06 0.010377901 -0.0049798503 0 0 0 0
0.000314373 0.010390771 -0.0049299598 0 0 0 0
0.00061354495 0.01037865 -0.0048608701 0 0 0 0
0.000926829 0.010391491 -0.00481077 0 0 0 0
0.0012254219 0.010380629 -0.0047404799 0 0 0 0
0.001525902 0.01036842 -0.0046710302 0 0 0 0
0.0018119011 0.01033275 -0.0045813601 0 0 0 0
0.0021115621 0.010321019 -0.0045118202 0 0 0 0
0.0024111178 0.01030944 -0.0044418601 0 0 0 0
0.002709396 0.01029804 -0.0043719001 0 0 0 0
0.0029963402 0.01026201 -0.0042826198 0 0 0 0
0.0032949301 0.01025052 -0.0042129899 0 0 0 0
0.0036095101 0.01026414 -0.0041656797 0 0 0 0
0.0039255298 0.0102798 -0.0041207103 0 0 0 0
0.00428415 0.01037028 -0.0041421899 0 0 0 0
0.0045994502 0.01038582 -0.0040979702 0 0 0 0
0.0049428898 0.01045125 -0.0040979399 0 0 0 0
0.0052583097 0.01046664 -0.00405426 0 0 0 0
-0.024774449 0.033714902 0.01363161 0 0 0 0
-0.01345419 0.010197271 -0.0069083702 0 0 0 0
-0.01320765 0.01008828 -0.0067577697 0 0 0 0
-0.012922261 0.01005267 -0.0066693602 0 0 0 0
-0.01260927 0.01006551 -0.0066187498 0 0 0 0
-0.012296161 0.010078411 -0.0065684104 0 0 0 0
-0.011983139 0.01009122 -0.0065194201 0 0 0 0
-0.01167039 0.01010406 -0.0064695301 0 0 0 0
-0.01137132 0.01009272 -0.00639858 0 0 0 0
-0.011058031 0.01010568 -0.0063483301 0 0 0 0
-0.01074555 0.01011864 -0.0062987101 0 0 0 0
-0.01043196 0.01013196 -0.0062488504 0 0 0 0
-0.01009218 0.010193489 -0.0062389802 0 0 0 0
-0.0097662602 0.01023078 -0.00620919 0 0 0 0
-0.0094266897 0.01029177 -0.0061995899 0 0 0 0
-0.0091018202 0.01032975 -0.0061687501 0 0 0 0
-0.0087744603 0.01036677 -0.00613908 0 0 0 0
-0.0084492601 0.010403279 -0.0061097401 0 0 0 0
-0.0081359698 0.01041729 -0.00605916 0 0 0 0
-0.0078095105 0.010453709 -0.0060296399 0 0 0 0
-0.0074839201 0.010490729 -0.0059997602 0 0 0 0
-0.0071715899 0.01050402 -0.0059497799 0 0 0 0
-0.0068574897 0.01051668 -0.0058998298 0 0 0 0
-0.00654537 0.010529581 -0.0058500296 0 0 0 0
-0.0062321099 0.010543049 -0.0057998998 0 0 0 0
-0.0059064003 0.010579471 -0.0057701101 0 0 0 0
-0.0056066401 0.01056801 -0.0057004504 0 0 0 0
-0.0052944901 0.010581059 -0.0056505599 0 0 0 0
-0.0049819797 0.0105945 -0.0056002201 0 0 0 0
-0.00468237 0.01058226 -0.00553104 0 0 0 0
-0.0043695001 0.0105954 -0.0054810001 0 0 0 0
-0.0040564202 0.01060896 -0.00543069 0 0 0 0
-0.00374373 0.010620451 -0.0053815199 0 0 0 0
-0.00344424 0.01060986 -0.0053113499 0 0 0 0
-0.0031314599 0.01062168 -0.0052620899 0 0 0 0
-0.0028180711 0.01063512 -0.00521175 0 0 0 0
-0.0025052759 0.01064802 -0.0051616798 0 0 0 0
-0.002206851 0.010636981 -0.0050920201 0 0 0 0
-0.001893291 0.01064985 -0.0050420398 0 0 0 0
-0.0015806489 0.01066209 -0.0049924799 0 0 0 0
-0.001267815 0.01067445 -0.0049428605 0 0 0 0
-0.00096876896 0.01066401 -0.0048726602 0 0 0 0
-0.00065572804 0.010676909 -0.0048228297 0 0 0 0
-0.00034299601 0.01068927 -0.0047731199 0 0 0 0
-4.3622102e-05 0.01067814 -0.0047034603 0 0 0 0
0.00028220459 0.01071537 -0.0046732803 0 0 0 0
0.00058180501 0.010704 -0.0046034101 0 0 0 0
0.00088147802 0.010692029 -0.0045336299 0 0 0 0
0.0011673691 0.01065687 -0.0044437801 0 0 0 0
0.0014667331 0.0106449 -0.0043742098 0 0 0 0
0.0017536409 0.01060944 -0.004284 0 0 0 0
0.002038785 0.01057401 -0.0041944501 0 0 0 0
0.002324766 0.010537861 -0.0041046902 0 0 0 0
0.0025848509 0.01045266 -0.0039756298 0 0 0 0
0.0028572632 0.01039269 -0.00386595 0 0 0 0
0.00312996 0.01033251 -0.0037566898 0 0 0 0
0.0034157999 0.010296781 -0.0036665699 0 0 0 0
0.00371586 0.01028535 -0.0035962202 0 0 0 0
0.0040289103 0.010298341 -0.0035464501 0 0 0 0
0.0043551 0.01033626 -0.00351897 0 0 0 0
0.0047003399 0.010402139 -0.0035189099 0 0 0 0
0.0050304299 0.01044288 -0.00349629 0 0 0 0
0.0053731496 0.01050834 -0.0034959901 0 0 0 0
-0.013785 0.01053024 -0.0067235101 0 0 0 0
-0.01361967 0.01027617 -0.0064543802 0 0 0 0
-0.01342572 0.010069201 -0.0062262304 0 0 0 0
-0.01312668 0.01005786 -0.0061553097 0 0 0 0
-0.01281321 0.010070819 -0.0061059599 0 0 0 0
-0.012500459 0.01008375 -0.0060563697 0 0 0 0
-0.012187109 0.01009671 -0.00600594 0 0 0 0
-0.011875111 0.01010961 -0.0059561101 0 0 0 0
-0.011562959 0.010122511 -0.0059067602 0 0 0 0
-0.01125006 0.01013574 -0.0058553996 0 0 0 0
-0.01092273 0.01017336 -0.0058258502 0 0 0 0
-0.01058412 0.01023465 -0.0058163702 0 0 0 0
-0.01021731 0.010345739 -0.0058452599 0 0 0 0
-0.0098520899 0.01045557 -0.0058750799 0 0 0 0
-0.0094983 0.010541759 -0.0058847698 0 0 0 0
-0.0091586402 0.01060293 -0.00587499 0 0 0 0
-0.0088199396 0.01066482 -0.0058645802 0 0 0 0
-0.0084797097 0.01072668 -0.00585408 0 0 0 0
-0.0081536397 0.01076361 -0.0058241701 0 0 0 0
-0.0078415796 0.01077615 -0.0057747299 0 0 0 0
-0.0075024297 0.010838729 -0.0057639303 0 0 0 0
-0.0071756099 0.010875599 -0.0057339901 0 0 0 0
-0.0068628001 0.01088829 -0.00568419 0 0 0 0
-0.0065495698 0.010901011 -0.0056343297 0 0 0 0
-0.0062368503 0.01091463 -0.0055839298 0 0 0 0
-0.0059240102 0.01092795 -0.0055337697 0 0 0 0
-0.0056123403 0.01093983 -0.00548454 0 0 0 0
-0.0052988101 0.01095318 -0.0054341699 0 0 0 0
-0.0049991701 0.010941509 -0.0053646001 0 0 0 0
-0.00468654 0.01095549 -0.00531408 0 0 0 0
-0.0043746303 0.01096725 -0.0052649099 0 0 0 0
-0.0040618801 0.010980991 -0.0052144798 0 0 0 0
-0.0037613101 0.01097004 -0.0051443996 0 0 0 0
-0.00344967 0.01098168 -0.0050952602 0 0 0 0
-0.00313605 0.01099566 -0.00504441 0 0 0 0
-0.0028376279 0.01098435 -0.0049749301 0 0 0 0
-0.0025244192 0.01099722 -0.00492483 0 0 0 0
-0.0022106972 0.01100946 -0.0048751798 0 0 0 0
-0.001898049 0.011022571 -0.0048249899 0 0 0 0
-0.001598502 0.01101147 -0.0047551203 0 0 0 0
-0.001286697 0.01102389 -0.0047055897 0 0 0 0
-0.00097406399 0.01103658 -0.0046558199 0 0 0 0
-0.00064774801 0.01107489 -0.00462498 0 0 0 0
-0.00033521399 0.01108779 -0.0045751501 0 0 0 0
-8.5014899e-06 0.01112451 -0.0045451503 0 0 0 0
0.0002913069 0.011112539 -0.0044756699 0 0 0 0
0.00059020502 0.01110153 -0.00440541 0 0 0 0
0.00086304604 0.011041589 -0.0042960001 0 0 0 0
0.0011623501 0.01103031 -0.0042260098 0 0 0 0
0.001448337 0.01099512 -0.00413595 0 0 0 0
0.001733991 0.01095888 -0.0040467903 0 0 0 0
0.0020204519 0.01092327 -0.0039564599 0 0 0 0
0.0022926389 0.010863001 -0.0038471702 0 0 0 0
0.0025259042 0.01072893 -0.0036784201 0 0 0 0
0.0027716071 0.0106206 -0.00352848 0 0 0 0
0.0030038101 0.01048752 -0.0033598801 0 0 0 0
0.0032365501 0.01035429 -0.0031909798 0 0 0 0
0.0035234101 0.01031838 -0.0031012499 0 0 0 0
0.00380967 0.01028283 -0.0030111 0 0 0 0
0.0041353498 0.01032 -0.0029815531 0 0 0 0
0.0044481601 0.01033302 -0.002931624 0 0 0 0
0.0048020398 0.01041918 -0.0029400722 0 0 0 0
0.0051444601 0.01048398 -0.0029376 0 0 0 0
0.0054737702 0.010524601 -0.0029162131 0 0 0 0
-0.022427101 0.033569399 0.014279669 0 0 0 0
-0.01378398 0.010353629 -0.0060022799 0 0 0 0
-0.01361781 0.01009842 -0.0057345903 0 0 0 0
-0.01333059 0.01006257 -0.0056440197 0 0 0 0
-0.013018291 0.01007556 -0.0055938596 0 0 0 0
-0.0127053 0.01008861 -0.0055434899 0 0 0 0
-0.012392821 0.01010157 -0.0054934202 0 0 0 0
-0.01209312 0.01009032 -0.0054243901 0 0 0 0
-0.01176687 0.01012782 -0.0053935796 0 0 0 0
-0.011440439 0.01016559 -0.00536313 0 0 0 0
-0.01108893 0.010251541 -0.0053725797 0 0 0 0
-0.01070934 0.01038663 -0.0054219598 0 0 0 0
-0.010329571 0.01052163 -0.0054716105 0 0 0 0
-0.00993618 0.010680719 -0.00554115 0 0 0 0
-0.0095434207 0.010839719 -0.0056099999 0 0 0 0
-0.0092042098 0.010901581 -0.0055998904 0 0 0 0
-0.0088377297 0.011012279 -0.0056288401 0 0 0 0
-0.0085124103 0.01104966 -0.0055988701 0 0 0 0
-0.0081728399 0.01111152 -0.0055883997 0 0 0 0
-0.0078323102 0.01117335 -0.0055778697 0 0 0 0
-0.0075069303 0.01121028 -0.0055479901 0 0 0 0
-0.0071806796 0.011247749 -0.0055173598 0 0 0 0
-0.00686805 0.011260769 -0.0054674703 0 0 0 0
-0.0065412 0.01129782 -0.0054372298 0 0 0 0
-0.0062428201 0.01128678 -0.0053673601 0 0 0 0
-0.0059302798 0.01129905 -0.0053182803 0 0 0 0
-0.0056306999 0.011288701 -0.0052473 0 0 0 0
-0.0053038802 0.0113253 -0.00521769 0 0 0 0
-0.0050043296 0.01131438 -0.0051474301 0 0 0 0
-0.0046916101 0.01132788 -0.0050967596 0 0 0 0
-0.0043792501 0.011340749 -0.0050469898 0 0 0 0
-0.00406677 0.01135299 -0.00499791 0 0 0 0
-0.0037533601 0.011366401 -0.00494724 0 0 0 0
-0.0034413598 0.011379659 -0.0048968103 0 0 0 0
-0.0031413001 0.01136847 -0.0048267599 0 0 0 0
-0.0028290902 0.01138116 -0.0047772601 0 0 0 0
-0.0025298879 0.0113697 -0.0047076899 0 0 0 0
-0.0022161149 0.01138281 -0.0046574697 0 0 0 0
-0.0019035479 0.01139619 -0.0046069799 0 0 0 0
-0.001604175 0.01138392 -0.0045383098 0 0 0 0
-0.0012921121 0.011397299 -0.0044879401 0 0 0 0
-0.00099227403 0.01138611 -0.0044179498 0 0 0 0
-0.00066598202 0.01142349 -0.00438753 0 0 0 0
-0.000353157 0.01143651 -0.0043373699 0 0 0 0
-4.0713603e-05 0.011449439 -0.0042873598 0 0 0 0
0.00025890241 0.011437921 -0.0042176698 0 0 0 0
0.00055897504 0.01142619 -0.0041479198 0 0 0 0
0.00084439502 0.01139055 -0.0040585501 0 0 0 0
0.001143888 0.01137939 -0.0039881398 0 0 0 0
0.0014294549 0.01134381 -0.0038983501 0 0 0 0
0.001714953 0.0113082 -0.00380868 0 0 0 0
0.001988316 0.01124778 -0.0036990901 0 0 0 0
0.002248026 0.01116288 -0.0035693399 0 0 0 0
0.0024666779 0.01100607 -0.0033801 0 0 0 0
0.002686674 0.01084743 -0.0031918201 0 0 0 0
0.0028788301 0.01064169 -0.002962749 0 0 0 0
0.0030851101 0.01045974 -0.00275442 0 0 0 0
0.00333141 0.010351051 -0.002605485 0 0 0 0
0.0036180301 0.010315469 -0.0025154341 0 0 0 0
0.0039300001 0.0103284 -0.002465382 0 0 0 0
0.0042294301 0.010317151 -0.0023954099 0 0 0 0
0.0045688199 0.01037883 -0.002384484 0 0 0 0
0.0049092299 0.010440811 -0.0023753191 0 0 0 0
0.0052481699 0.01050228 -0.0023642732 0 0 0 0
0.0055468199 0.010491 -0.00229521 0 0 0 0
-0.021634441 0.020194499 0.0074457303 0 0 0 0
-0.01393494 0.010454699 -0.0055698301 0 0 0 0
-0.013821989 0.01010238 -0.0052230004 0 0 0 0
-0.01352262 0.0100911 -0.00515211 0 0 0 0
-0.01322271 0.01007982 -0.0050826301 0 0 0 0
-0.012909571 0.010092961 -0.0050318399 0 0 0 0
-0.012597 0.01010604 -0.0049814098 0 0 0 0
-0.012284909 0.010119149 -0.0049317 0 0 0 0
-0.011958331 0.010156831 -0.0049015498 0 0 0 0
-0.011619 0.01021902 -0.0048910803 0 0 0 0
-0.011253119 0.01032951 -0.00492102 0 0 0 0
-0.01083303 0.010538669 -0.0050292304 0 0 0 0
-0.01040028 0.010770719 -0.0051579 0 0 0 0
-0.0099946801 0.01095507 -0.0052455901 0 0 0 0
-0.0096009299 0.01111413 -0.0053154305 0 0 0 0
-0.0092224497 0.01124928 -0.0053634001 0 0 0 0
-0.0088689001 0.011335321 -0.0053730002 0 0 0 0
-0.0085164597 0.011420909 -0.0053830203 0 0 0 0
-0.00818979 0.011458441 -0.0053525399 0 0 0 0
-0.0078642303 0.01149597 -0.0053213402 0 0 0 0
-0.00755241 0.011509079 -0.0052708797 0 0 0 0
-0.0072393301 0.011522071 -0.0052210502 0 0 0 0
-0.0069402903 0.01151079 -0.0051512402 0 0 0 0
-0.0066133197 0.01154802 -0.0051216302 0 0 0 0
-0.0063134702 0.011536861 -0.00505113 0 0 0 0
-0.0060010799 0.011549939 -0.0050011501 0 0 0 0
-0.0056889597 0.01156293 -0.0049517401 0 0 0 0
-0.00537606 0.01157595 -0.0049018203 0 0 0 0
-0.0050768703 0.01156476 -0.0048312899 0 0 0 0
-0.00476364 0.0115779 -0.0047810101 0 0 0 0
-0.0044514299 0.01159101 -0.0047305198 0 0 0 0
-0.0041382597 0.011604059 -0.0046806298 0 0 0 0
-0.00383811 0.01159278 -0.00461121 0 0 0 0
-0.0035262599 0.011605861 -0.0045606 0 0 0 0
-0.0032267398 0.01159458 -0.0044910898 0 0 0 0
-0.0029142869 0.011607811 -0.0044402401 0 0 0 0
-0.0026015341 0.01162092 -0.0043903198 0 0 0 0
-0.0022889969 0.011633909 -0.0043403697 0 0 0 0
-0.001975995 0.01164684 -0.0042912299 0 0 0 0
-0.001663128 0.01165992 -0.0042410102 0 0 0 0
-0.0013496671 0.01167297 -0.0041907597 0 0 0 0
-0.0010507021 0.011661749 -0.0041211899 0 0 0 0
-0.000724599 0.01169925 -0.0040901098 0 0 0 0
-0.00042467401 0.011688 -0.0040199403 0 0 0 0
-0.0001256625 0.01167657 -0.0039506401 0 0 0 0
0.00017318341 0.01166535 -0.0038808601 0 0 0 0
0.00047353498 0.01165395 -0.0038101501 0 0 0 0
0.00075876596 0.01161834 -0.0037209601 0 0 0 0
0.001058454 0.01160697 -0.0036510602 0 0 0 0
0.001343958 0.01157148 -0.00356031 0 0 0 0
0.001616526 0.01151133 -0.0034518 0 0 0 0
0.001889718 0.01145106 -0.00334233 0 0 0 0
0.0021489121 0.01136655 -0.0032121001 0 0 0 0
0.0023681701 0.01120893 -0.0030240002 0 0 0 0
0.0025606591 0.011002529 -0.0027954092 0 0 0 0
0.002726157 0.01074801 -0.0025276919 0 0 0 0
0.0028935571 0.010491719 -0.0022585168 0 0 0 0
0.00313929 0.01038321 -0.0021101821 0 0 0 0
0.0033994801 0.010298969 -0.001979769 0 0 0 0
0.0037119002 0.01031196 -0.001929765 0 0 0 0
0.00401073 0.01030071 -0.0018604529 0 0 0 0
0.0043244702 0.010313939 -0.001810287 0 0 0 0
0.0046502398 0.010351471 -0.0017791709 0 0 0 0
0.0050024702 0.010437571 -0.0017895149 0 0 0 0
0.00534207 0.010499369 -0.001778346 0 0 0 0
0.0056408397 0.01048812 -0.001709568 0 0 0 0
-0.023849251 0.034153499 0.01402965 0 0 0 0
-0.025985759 0.033360302 0.01149111 0 0 0 0
-0.014219459 0.01031262 -0.0049404604 0 0 0 0
-0.0140265 0.010105981 -0.00471099 0 0 0 0
-0.01372653 0.01009479 -0.00464124 0 0 0 0
-0.01341369 0.01010781 -0.0045905099 0 0 0 0
-0.01312737 0.01007244 -0.0045021302 0 0 0 0
-0.01280097 0.01010997 -0.00447036 0 0 0 0
-0.01248831 0.010123231 -0.0044205002 0 0 0 0
-0.01216317 0.01016103 -0.0043897801 0 0 0 0
-0.01179642 0.010272481 -0.0044192402 0 0 0 0
-0.01139085 0.01045632 -0.0045082802 0 0 0 0
-0.01093161 0.01073838 -0.0046753199 0 0 0 0
-0.0104718 0.01102014 -0.0048431698 0 0 0 0
-0.010065449 0.01120398 -0.0049319398 0 0 0 0
-0.0096460795 0.01141197 -0.0050399997 0 0 0 0
-0.0092927404 0.011498339 -0.0050487602 0 0 0 0
-0.0089539802 0.01156008 -0.0050378703 0 0 0 0
-0.0086277006 0.01159755 -0.0050073601 0 0 0 0
-0.0083147995 0.011610569 -0.00495741 0 0 0 0
-0.0080166003 0.011599381 -0.00488781 0 0 0 0
-0.00770364 0.01161255 -0.0048371102 0 0 0 0
-0.0074040899 0.01160136 -0.0047675702 0 0 0 0
-0.0070912801 0.01161444 -0.00471693 0 0 0 0
-0.0067911902 0.01160328 -0.0046481402 0 0 0 0
-0.0064791897 0.01161636 -0.0045969002 0 0 0 0
-0.0061802398 0.01160514 -0.0045273299 0 0 0 0
-0.0058666198 0.01161834 -0.0044780397 0 0 0 0
-0.00555351 0.01163154 -0.0044271899 0 0 0 0
-0.00524172 0.01164462 -0.0043775402 0 0 0 0
-0.0049417801 0.01163346 -0.00430662 0 0 0 0
-0.0046297801 0.011646541 -0.0042561898 0 0 0 0
-0.0043172701 0.01165974 -0.00420606 0 0 0 0
-0.0040033199 0.01167297 -0.0041562598 0 0 0 0
-0.0036908102 0.011686021 -0.0041061598 0 0 0 0
-0.0033915301 0.01167486 -0.0040362598 0 0 0 0
-0.0030782698 0.011688029 -0.00398592 0 0 0 0
-0.0027658921 0.01170126 -0.00393666 0 0 0 0
-0.0024403951 0.011738581 -0.0039050402 0 0 0 0
-0.0021542369 0.011703149 -0.00381585 0 0 0 0
-0.001827486 0.01174056 -0.0037852498 0 0 0 0
-0.0015291449 0.0117294 -0.0037157999 0 0 0 0
-0.001216206 0.01174257 -0.003666 0 0 0 0
-0.00090374402 0.011755651 -0.0036149099 0 0 0 0
-0.00058991701 0.01176888 -0.0035643599 0 0 0 0
-0.0002772453 0.0117819 -0.00351483 0 0 0 0
8.2958404e-06 0.01174644 -0.0034246198 0 0 0 0
0.00032125498 0.01175946 -0.0033751498 0 0 0 0
0.000607647 0.01172379 -0.0032849701 0 0 0 0
0.00089375104 0.01168821 -0.0031953 0 0 0 0
0.0011924311 0.011676869 -0.00312573 0 0 0 0
0.001465464 0.011617021 -0.00301491 0 0 0 0
0.0017511719 0.011581199 -0.0029254199 0 0 0 0
0.0020099459 0.01149684 -0.002796897 0 0 0 0
0.002242689 0.01136352 -0.0026282158 0 0 0 0
0.002381871 0.01105905 -0.0023197499 0 0 0 0
0.0024948779 0.01070622 -0.0019733761 0 0 0 0
0.0026475419 0.01042632 -0.0016851451 0 0 0 0
0.0029071202 0.01034178 -0.0015548101 0 0 0 0
0.00319374 0.01030626 -0.0014661631 0 0 0 0
0.0035066099 0.01031937 -0.0014161109 0 0 0 0
0.00380649 0.01030818 -0.001345104 0 0 0 0
0.00411927 0.01032123 -0.001294935 0 0 0 0
0.0044180099 0.01031013 -0.001225197 0 0 0 0
0.0047448897 0.010347839 -0.001194576 0 0 0 0
0.0050831102 0.01040973 -0.001185153 0 0 0 0
0.0054369299 0.01049595 -0.001193655 0 0 0 0
0.0057358202 0.01048482 -0.001123869 0 0 0 0
0.0060476698 0.010497989 -0.001074153 0 0 0 0
-0.01450374 0.01016916 -0.0043104901 0 0 0 0
-0.01421796 0.01013358 -0.0042209099 0 0 0 0
-0.01394409 0.01007352 -0.0041106301 0 0 0 0
-0.01364442 0.01006242 -0.0040410599 0 0 0 0
-0.013332239 0.01007565 -0.00399093 0 0 0 0
-0.01301961 0.010089 -0.0039397501 0 0 0 0
-0.0126936 0.010126561 -0.0039105597 0 0 0 0
-0.01238016 0.01014045 -0.0038597099 0 0 0 0
-0.01198842 0.01030014 -0.0039279899 0 0 0 0
-0.011542469 0.01055781 -0.0040761302 0 0 0 0
-0.01105605 0.010889189 -0.0042829202 0 0 0 0
-0.010569899 0.01122006 -0.0044892002 0 0 0 0
-0.010150081 0.01142835 -0.00459813 0 0 0 0
-0.0097840801 0.011539171 -0.0046267202 0 0 0 0
-0.0094452603 0.01160103 -0.0046154102 0 0 0 0
-0.0091455299 0.0115899 -0.0045456002 0 0 0 0
-0.0088334698 0.0116031 -0.0044959798 0 0 0 0
-0.0085203601 0.0116163 -0.00444576 0 0 0 0
-0.0082204798 0.01160508 -0.00437559 0 0 0 0
-0.0079210503 0.011594011 -0.0043057501 0 0 0 0
-0.0076085404 0.011607241 -0.0042554699 0 0 0 0
-0.0072959699 0.01162035 -0.0042039598 0 0 0 0
-0.0069966898 0.011609189 -0.0041348701 0 0 0 0
-0.0066974699 0.01159806 -0.0040648798 0 0 0 0
-0.0063840901 0.011611231 -0.0040149898 0 0 0 0
-0.0060845399 0.01160013 -0.003945 0 0 0 0
-0.0057720896 0.01161345 -0.0038938499 0 0 0 0
-0.0054458398 0.01165092 -0.0038634599 0 0 0 0
-0.0051477598 0.01163982 -0.0037927201 0 0 0 0
-0.00483381 0.01165299 -0.00374334 0 0 0 0
-0.00453474 0.01164195 -0.0036736801 0 0 0 0
-0.0042091198 0.011679539 -0.0036430198 0 0 0 0
-0.00389574 0.01169271 -0.0035927398 0 0 0 0
-0.0035963398 0.011681611 -0.0035218499 0 0 0 0
-0.0032832902 0.01169475 -0.00347187 0 0 0 0
-0.0029844509 0.01168365 -0.0034026899 0 0 0 0
-0.0026724569 0.01169685 -0.00335148 0 0 0 0
-0.0023718269 0.01168581 -0.0032824201 0 0 0 0
-0.002046651 0.01172331 -0.00325209 0 0 0 0
-0.001747209 0.01171215 -0.0031807502 0 0 0 0
-0.0014336429 0.01172532 -0.0031307698 0 0 0 0
-0.001134624 0.01171416 -0.0030609602 0 0 0 0
-0.00083628303 0.01170303 -0.002991243 0 0 0 0
-0.00050951098 0.01174071 -0.002961321 0 0 0 0
-0.0001963713 0.01175397 -0.0029098261 0 0 0 0
0.00011568599 0.011767169 -0.002860758 0 0 0 0
0.00042866101 0.01178034 -0.0028104871 0 0 0 0
0.00072804303 0.01176909 -0.002739144 0 0 0 0
0.0010000471 0.01170915 -0.0026301332 0 0 0 0
0.00130047 0.01169787 -0.002559972 0 0 0 0
0.001598991 0.011686591 -0.0024903179 0 0 0 0
0.001845069 0.01157766 -0.0023418569 0 0 0 0
0.002037792 0.01137072 -0.002113254 0 0 0 0
0.002123889 0.010968359 -0.001726545 0 0 0 0
0.0021960121 0.01054218 -0.001319916 0 0 0 0
0.0024024332 0.01035984 -0.0011113291 0 0 0 0
0.0026889241 0.01032423 -0.001022262 0 0 0 0
0.0029754662 0.01028859 -0.00093215698 0 0 0 0
0.0032742899 0.0102774 -0.00086130598 0 0 0 0
0.0035735401 0.01026621 -0.00079139404 0 0 0 0
0.0038865302 0.0102795 -0.00074187305 0 0 0 0
0.0041989498 0.01029267 -0.00069118198 0 0 0 0
0.0045119999 0.01030593 -0.00064118102 0 0 0 0
0.0048124199 0.01029501 -0.00057099597 0 0 0 0
0.0051507601 0.010356841 -0.00055970397 0 0 0 0
0.0054907198 0.01041894 -0.00054894597 0 0 0 0
0.0058037397 0.01043229 -0.00049898401 0 0 0 0
0.0061156801 0.01044549 -0.00044924399 0 0 0 0
0.00642792 0.01045875 -0.000399435 0 0 0 0
-0.015593071 0.01022985 -0.0040312503 0 0 0 0
-0.01534545 0.01012083 -0.00388137 0 0 0 0
-0.015033809 0.01013409 -0.00383133 0 0 0 0
-0.01473465 0.01012293 -0.0037614899 0 0 0 0
-0.01446216 0.010062929 -0.0036522001 0 0 0 0
-0.014162909 0.01005177 -0.00358116 0 0 0 0
-0.013848931 0.01006518 -0.0035311801 0 0 0 0
-0.01353654 0.010078439 -0.00348126 0 0 0 0
-0.01322439 0.01009176 -0.00343074 0 0 0 0
-0.01289802 0.01012956 -0.00339975 0 0 0 0
-0.01258512 0.01014309 -0.0033499501 0 0 0 0
-0.01221978 0.01025436 -0.0033779701 0 0 0 0
-0.01175994 0.01053741 -0.0035454601 0 0 0 0
-0.011167379 0.01106463 -0.00390924 0 0 0 0
-0.01069425 0.011371019 -0.0040958701 0 0 0 0
-0.01031454 0.0115062 -0.0041449801 0 0 0 0
-0.0099895801 0.01154388 -0.0041144397 0 0 0 0
-0.0096630901 0.01158162 -0.0040834197 0 0 0 0
-0.0093501899 0.01159494 -0.00403404 0 0 0 0
-0.0090382798 0.0116082 -0.00398358 0 0 0 0
-0.0087382803 0.01159701 -0.00391299 0 0 0 0
-0.0084383702 0.011585999 -0.0038436898 0 0 0 0
-0.0081270002 0.01159917 -0.0037919399 0 0 0 0
-0.0078271795 0.01158798 -0.00372183 0 0 0 0
-0.00752796 0.01157694 -0.0036521701 0 0 0 0
-0.00721539 0.01159026 -0.0036023699 0 0 0 0
-0.00690162 0.01160352 -0.0035518499 0 0 0 0
-0.0066025499 0.011592451 -0.00348162 0 0 0 0
-0.0062899501 0.01160574 -0.00343098 0 0 0 0
-0.0059772898 0.01161906 -0.0033805799 0 0 0 0
-0.0056646299 0.01163235 -0.00333084 0 0 0 0
-0.0053654704 0.01162128 -0.00326064 0 0 0 0
-0.0050397301 0.01165896 -0.0032293198 0 0 0 0
-0.0047403299 0.011647861 -0.0031597801 0 0 0 0
-0.0044268598 0.011661121 -0.0031092302 0 0 0 0
-0.0041277902 0.01165005 -0.0030394201 0 0 0 0
-0.00381489 0.011663401 -0.0029898961 0 0 0 0
-0.0035028001 0.011676661 -0.0029386589 0 0 0 0
-0.0031893 0.01168989 -0.0028877729 0 0 0 0
-0.0028904909 0.01167879 -0.0028177891 0 0 0 0
-0.0025768168 0.01169223 -0.0027685619 0 0 0 0
-0.0022643581 0.0117054 -0.002717664 0 0 0 0
-0.0019656389 0.01169433 -0.002647128 0 0 0 0
-0.001653336 0.01170765 -0.0025974691 0 0 0 0
-0.0013394251 0.011721 -0.0025464029 0 0 0 0
-0.001026648 0.01173432 -0.0024964469 0 0 0 0
-0.00071517599 0.01174758 -0.002446596 0 0 0 0
-0.00041554199 0.011736481 -0.0023757149 0 0 0 0
-8.9097302e-05 0.01177416 -0.002345508 0 0 0 0
0.00021085411 0.01176309 -0.002275035 0 0 0 0
0.00052352698 0.01177644 -0.0022254661 0 0 0 0
0.00083583 0.01178946 -0.0021757139 0 0 0 0
0.0011083951 0.01172946 -0.0020661571 0 0 0 0
0.001380711 0.01166943 -0.001956498 0 0 0 0
0.00162606 0.01156032 -0.0018065399 0 0 0 0
0.001752717 0.01123086 -0.0014801971 0 0 0 0
0.001771875 0.01070625 -0.00099496206 0 0 0 0
0.001925418 0.01042611 -0.00070836901 0 0 0 0
0.0021846599 0.01034154 -0.000578187 0 0 0 0
0.0024579091 0.01028157 -0.00046896603 0 0 0 0
0.0027565679 0.010270351 -0.00039791397 0 0 0 0
0.00305643 0.01025928 -0.00032780101 0 0 0 0
0.0033696601 0.01027257 -0.00027829051 0 0 0 0
0.00366819 0.01026144 -0.00020758741 0 0 0 0
0.0039671999 0.01025034 -0.00013790341 0 0 0 0
0.0042809099 0.0102636 -8.6939399e-05 0 0 0 0
0.0045804 0.01025265 -1.8073619e-05 0 0 0 0
0.0049066497 0.01029036 1.30959e-05 0 0 0 0
0.00521883 0.010303769 6.38946e-05 0 0 0 0
0.0055579804 0.01036596 7.3859104e-05 0 0 0 0
0.0058968002 0.01042812 8.4507599e-05 0 0 0 0
0.0062106298 0.01044147 0.0001348056 0 0 0 0
0.00652311 0.01045473 0.00018570271 0 0 0 0
0.00683625 0.01046871 0.000236097 0 0 0 0
0.00728139 0.010726199 8.8338595e-05 0 0 0 0
0.0076868399 0.010910611 2.5480981e-07 0 0 0 0
0.0080280602 0.01097451 7.3045499e-06 0 0 0 0
0.0083591398 0.01101543 3.1290299e-05 0 0 0 0
0.0086795101 0.011097809 7.9211401e-05 0 0 0 0
0.0090697203 0.01122504 6.9756297e-06 0 0 0 0
0.0094371298 0.011366011 -1.9524239e-05 0 0 0 0
0.0097628394 0.011415061 4.7133603e-06 0 0 0 0
0.01012242 0.01154169 -1.9446179e-05 0 0 0 0
0.010468859 0.011636429 -1.339983e-05 0 0 0 0
0.010813439 0.01176066 -1.907721e-05 0 0 0 0
-0.01643556 0.01018038 -0.0036019499 0 0 0 0
-0.01614858 0.01014498 -0.0035129699 0 0 0 0
-0.015850289 0.01013406 -0.00344406 0 0 0 0
-0.01555119 0.01012272 -0.00337233 0 0 0 0
-0.01529097 0.01003827 -0.0032432699 0 0 0 0
-0.014978969 0.01005168 -0.0031936199 0 0 0 0
-0.01466523 0.010064971 -0.00314226 0 0 0 0
-0.01436589 0.010053899 -0.00307152 0 0 0 0
-0.01406766 0.010042829 -0.0030024 0 0 0 0
-0.01372716 0.01010517 -0.002991264 0 0 0 0
-0.01342749 0.010094159 -0.002920737 0 0 0 0
-0.01311507 0.01010763 -0.0028709131 0 0 0 0
-0.012789209 0.01014564 -0.0028395511 0 0 0 0
-0.01243656 0.01023288 -0.0028478252 0 0 0 0
-0.01196481 0.010539901 -0.00303495 0 0 0 0
-0.011372101 0.01106802 -0.0033983402 0 0 0 0
-0.01083138 0.011496991 -0.0036836101 0 0 0 0
-0.01051908 0.01151046 -0.00363363 0 0 0 0
-0.01019397 0.01154826 -0.0036028498 0 0 0 0
-0.0098678991 0.011585969 -0.0035715599 0 0 0 0
-0.0095677804 0.01157487 -0.00350148 0 0 0 0
-0.0092698503 0.01156383 -0.00343197 0 0 0 0
-0.0089694001 0.01155279 -0.0033615301 0 0 0 0
-0.0086565902 0.01156608 -0.00331113 0 0 0 0
-0.0083575202 0.01155507 -0.0032409602 0 0 0 0
-0.0080454303 0.01156839 -0.00319089 0 0 0 0
-0.0077589601 0.01153293 -0.0031012201 0 0 0 0
-0.0074323798 0.01157061 -0.00307071 0 0 0 0
-0.0071463301 0.011535331 -0.002979462 0 0 0 0
-0.0068211001 0.011572979 -0.0029488232 0 0 0 0
-0.0065084398 0.01158636 -0.0028986118 0 0 0 0
-0.0062088603 0.01157529 -0.0028283519 0 0 0 0
-0.00589563 0.01158876 -0.0027785911 0 0 0 0
-0.0055833599 0.01160214 -0.0027281879 0 0 0 0
-0.0052713295 0.011615461 -0.002677287 0 0 0 0
-0.0049578003 0.01162893 -0.0026274091 0 0 0 0
-0.0046451702 0.011642219 -0.0025767572 0 0 0 0
-0.00434661 0.01163121 -0.002507529 0 0 0 0
-0.0040339199 0.011644591 -0.0024565919 0 0 0 0
-0.0037209601 0.01165794 -0.002405613 0 0 0 0
-0.0034217099 0.0116469 -0.0023361931 0 0 0 0
-0.0031086002 0.01166025 -0.0022851811 0 0 0 0
-0.0028097038 0.01164918 -0.0022155929 0 0 0 0
-0.0024824908 0.011687039 -0.0021853561 0 0 0 0
-0.002183985 0.01167597 -0.0021140759 0 0 0 0
-0.0018703289 0.01168944 -0.0020648551 0 0 0 0
-0.0015584941 0.01170273 -0.0020134081 0 0 0 0
-0.0012463171 0.01171608 -0.0019628219 0 0 0 0
-0.00093281094 0.01172958 -0.0019133009 0 0 0 0
-0.000620445 0.0117429 -0.0018627089 0 0 0 0
-0.00032037299 0.01173186 -0.001791933 0 0 0 0
-8.5640695e-06 0.01174521 -0.0017416261 0 0 0 0
0.0002905236 0.01173414 -0.0016725331 0 0 0 0
0.00060387002 0.011747429 -0.001621851 0 0 0 0
0.00089023501 0.011711731 -0.001532499 0 0 0 0
0.001148697 0.011627009 -0.001402365 0 0 0 0
0.001315317 0.011371201 -0.0011359591 0 0 0 0
0.0014005831 0.010969319 -0.00075026701 0 0 0 0
0.0014471309 0.01049265 -0.00030523801 0 0 0 0
0.001667331 0.010333801 -0.0001154847 0 0 0 0
0.001940217 0.01027392 -6.85752e-06 0 0 0 0
0.0022267711 0.0102384 8.3613297e-05 0 0 0 0
0.0025381621 0.01025181 0.00013479211 0 0 0 0
0.0028254511 0.010216231 0.00022374091 0 0 0 0
0.0031381201 0.01022961 0.00027474301 0 0 0 0
0.00343668 0.01021851 0.0003444 0 0 0 0
0.0037500001 0.01023198 0.00039501901 0 0 0 0
0.00406167 0.01024533 0.00044523901 0 0 0 0
0.0043756799 0.01025928 0.00049620302 0 0 0 0
0.0047009997 0.01029708 0.00052684499 0 0 0 0
0.0050137499 0.01031058 0.000577725 0 0 0 0
0.0053267102 0.01032336 0.00062763598 0 0 0 0
0.00561309 0.01028802 0.00071796001 0 0 0 0
0.0059250002 0.01030119 0.00076706399 0 0 0 0
0.0062518497 0.0103392 0.00079867803 0 0 0 0
0.00659031 0.010401331 0.00080940605 0 0 0 0
0.0069030002 0.01041489 0.00085888803 0 0 0 0
0.0072158403 0.01042815 0.00090991205 0 0 0 0
0.0075287097 0.010441829 0.00095988298 0 0 0 0
0.0079084504 0.01057761 0.000911796 0 0 0 0
0.0082481103 0.01064007 0.00092365802 0 0 0 0
0.0086275199 0.01077603 0.00087430503 0 0 0 0
0.0089799305 0.01086276 0.00086548203 0 0 0 0
0.0093070501 0.010901459 0.000895023 0 0 0 0
0.0096723596 0.01104018 0.00086073903 0 0 0 0
0.01006083 0.01118022 0.00079629605 0 0 0 0
0.01046376 0.01134156 0.00070965302 0 0 0 0
0.01080003 0.01143438 0.00071876397 0 0 0 0
0.01116141 0.011575021 0.00068658899 0 0 0 0
0.01151742 0.011728469 0.00065704802 0 0 0 0
-0.02138922 0.020081909 0.0075930003 0 0 0 0
-0.0220812 0.044588398 -0.0076796398 0 0 0 0
-0.017604301 0.010092421 -0.00320541 0 0 0 0
-0.01730448 0.01008144 -0.00313548 0 0 0 0
-0.016992569 0.01009485 -0.00308538 0 0 0 0
-0.016680511 0.01010847 -0.0030365698 0 0 0 0
-0.01639278 0.01007277 -0.002945256 0 0 0 0
-0.0160947 0.01006176 -0.0028751851 0 0 0 0
-0.01580823 0.010026241 -0.0027847681 0 0 0 0
-0.01549563 0.01003965 -0.0027337801 0 0 0 0
-0.01519548 0.0100287 -0.0026634031 0 0 0 0
-0.01488279 0.01004214 -0.002613876 0 0 0 0
-0.01457049 0.010055611 -0.0025630828 0 0 0 0
-0.01425783 0.01006902 -0.002512869 0 0 0 0
-0.01395873 0.01005804 -0.002442081 0 0 0 0
-0.01363218 0.01009602 -0.0024123511 0 0 0 0
-0.01332015 0.01010946 -0.0023616389 0 0 0 0
-0.01300668 0.010123139 -0.0023100718 0 0 0 0
-0.012667829 0.010185629 -0.0022998899 0 0 0 0
-0.01228836 0.01032276 -0.0023474279 0 0 0 0
-0.011576789 0.0110706 -0.002888784 0 0 0 0
-0.0110502 0.01147617 -0.00315357 0 0 0 0
-0.010724819 0.01151403 -0.0031215001 0 0 0 0
-0.01041156 0.01152762 -0.0030719701 0 0 0 0
-0.01008522 0.01156545 -0.0030412502 0 0 0 0
-0.0097868703 0.01155444 -0.002970699 0 0 0 0
-0.0094868401 0.011543371 -0.0029013271 0 0 0 0
-0.0091875298 0.011532299 -0.002829975 0 0 0 0
-0.0088876802 0.01152126 -0.002759712 0 0 0 0
-0.0085894503 0.01151028 -0.0026907839 0 0 0 0
-0.0082763704 0.01152375 -0.002639496 0 0 0 0
-0.0079641594 0.01153716 -0.002588931 0 0 0 0
-0.0076634702 0.01152621 -0.0025190942 0 0 0 0
-0.0073522199 0.011539619 -0.0024693299 0 0 0 0
-0.0070385402 0.01155306 -0.0024188161 0 0 0 0
-0.0067400397 0.01154205 -0.002347701 0 0 0 0
-0.00642693 0.01155552 -0.002297004 0 0 0 0
-0.0061268397 0.01154463 -0.00222762 0 0 0 0
-0.0058017299 0.01158246 -0.0021968849 0 0 0 0
-0.0054889796 0.0115959 -0.0021464969 0 0 0 0
-0.0051891301 0.011584951 -0.0020754719 0 0 0 0
-0.0048633898 0.01162281 -0.0020452561 0 0 0 0
-0.0045636599 0.01161183 -0.0019749899 0 0 0 0
-0.0042509101 0.011625299 -0.001924008 0 0 0 0
-0.00393822 0.011638709 -0.001874475 0 0 0 0
-0.0036396601 0.0116277 -0.001803753 0 0 0 0
-0.0033267001 0.0116412 -0.0017538 0 0 0 0
-0.0030143699 0.01165458 -0.001702743 0 0 0 0
-0.0027142442 0.01164363 -0.0016330711 0 0 0 0
-0.0024026069 0.01165701 -0.0015814471 0 0 0 0
-0.0020897309 0.011670539 -0.0015321269 0 0 0 0
-0.001776312 0.011683949 -0.00148128 0 0 0 0
-0.0014769509 0.01167297 -0.0014108431 0 0 0 0
-0.00116502 0.011686441 -0.001360098 0 0 0 0
-0.00085162499 0.01169988 -0.001309773 0 0 0 0
-0.00053919299 0.01171338 -0.001259511 0 0 0 0
-0.00022616041 0.011726851 -0.0012092941 0 0 0 0
8.6850894e-05 0.011740111 -0.001158825 0 0 0 0
0.00037242903 0.01170462 -0.001069419 0 0 0 0
0.00064484996 0.01164453 -0.00095983199 0 0 0 0
0.000876798 0.011511059 -0.00079069205 0 0 0 0
0.001003515 0.01118052 -0.00046407903 0 0 0 0
0.001049553 0.01070451 -2.0000341e-05 0 0 0 0
0.0011890021 0.01039926 0.00028676161 0 0 0 0
0.001435848 0.01028997 0.00043602902 0 0 0 0
0.001708218 0.010230061 0.00054528302 0 0 0 0
0.0020083319 0.01021911 0.000616554 0 0 0 0
0.0023210309 0.01023285 0.00066731096 0 0 0 0
0.002660634 0.01029504 0.00067725906 0 0 0 0
0.0029732878 0.01030872 0.00072804303 0 0 0 0
0.0032849701 0.010322521 0.00077885098 0 0 0 0
0.0035987999 0.01033635 0.00082988397 0 0 0 0
0.0039114603 0.01034973 0.00087956403 0 0 0 0
0.00425016 0.01041219 0.00089047803 0 0 0 0
0.0046159499 0.010524031 0.00086249097 0 0 0 0
0.0049425 0.01056108 0.00089340005 0 0 0 0
0.0052278601 0.01052538 0.00098288106 0 0 0 0
0.00550002 0.01046571 0.001093008 0 0 0 0
0.00577386 0.01040496 0.0012021541 0 0 0 0
0.0060465001 0.010345349 0.0013125241 0 0 0 0
0.0063328799 0.01030968 0.001401084 0 0 0 0
0.0066585001 0.01034745 0.001432227 0 0 0 0
0.0069584399 0.01033662 0.001502127 0 0 0 0
0.0072842399 0.0103746 0.001532757 0 0 0 0
0.0076092295 0.010412459 0.0015635371 0 0 0 0
0.0079358397 0.01045044 0.0015954269 0 0 0 0
0.0082624797 0.010488721 0.001625388 0 0 0 0
0.0086144097 0.01057554 0.001616325 0 0 0 0
0.0089274002 0.01058898 0.0016681469 0 0 0 0
0.0092793303 0.01067592 0.0016592401 0 0 0 0
0.0096901795 0.01084554 0.0015669031 0 0 0 0
0.01003536 0.010956479 0.001564824 0 0 0 0
0.01038474 0.01107954 0.0015527939 0 0 0 0
0.01077021 0.011224831 0.001489302 0 0 0 0
0.01117632 0.011375669 0.0014004511 0 0 0 0
0.01155342 0.0115383 0.0013429261 0 0 0 0
0.01194516 0.011722109 0.001261692 0 0 0 0
-0.021144871 0.0199704 0.0077411998 0 0 0 0
-0.022513259 0.033794999 0.014616599 0 0 0 0
-0.018706679 0.010125989 -0.0029085032 0 0 0 0
-0.01843401 0.01006599 -0.0027998369 0 0 0 0
-0.01812036 0.01007952 -0.002748711 0 0 0 0
-0.017807849 0.01009293 -0.0026983651 0 0 0 0
-0.01752156 0.010057501 -0.002609025 0 0 0 0
-0.0172233 0.01004652 -0.0025384952 0 0 0 0
-0.01693695 0.010011 -0.0024479309 0 0 0 0
-0.01662324 0.01002447 -0.0023976211 0 0 0 0
-0.016325129 0.010013551 -0.0023265479 0 0 0 0
-0.01601127 0.01002714 -0.0022771501 0 0 0 0
-0.015699839 0.01004058 -0.002225691 0 0 0 0
-0.01539993 0.01002969 -0.002155629 0 0 0 0
-0.01508676 0.01004322 -0.002105928 0 0 0 0
-0.01477401 0.01005672 -0.002054079 0 0 0 0
-0.01446165 0.01007022 -0.002003649 0 0 0 0
-0.01416198 0.0100593 -0.001934343 0 0 0 0
-0.01385043 0.0100728 -0.0018841231 0 0 0 0
-0.013537019 0.01008639 -0.0018333179 0 0 0 0
-0.013223641 0.01010016 -0.001782348 0 0 0 0
-0.01288494 0.01016262 -0.001771545 0 0 0 0
-0.01255989 0.01020063 -0.0017408491 0 0 0 0
-0.01190109 0.0108522 -0.0022019311 0 0 0 0
-0.011240849 0.011503739 -0.00266202 0 0 0 0
-0.01092873 0.01151727 -0.0026124509 0 0 0 0
-0.01062987 0.011506351 -0.0025421309 0 0 0 0
-0.010303141 0.01154433 -0.0025100368 0 0 0 0
-0.0100044 0.01153338 -0.0024400561 0 0 0 0
-0.00969165 0.01154691 -0.0023893621 0 0 0 0
-0.0093928203 0.01153593 -0.0023200831 0 0 0 0
-0.0090934196 0.01152492 -0.00225009 0 0 0 0
-0.0087935999 0.011513909 -0.0021796261 0 0 0 0
-0.0084936898 0.01150299 -0.0021090149 0 0 0 0
-0.0081818402 0.011516429 -0.002058021 0 0 0 0
-0.00788265 0.01150548 -0.0019881059 0 0 0 0
-0.00756972 0.01151907 -0.0019381769 0 0 0 0
-0.0072564296 0.0115326 -0.0018872099 0 0 0 0
-0.00694422 0.01154604 -0.0018358619 0 0 0 0
-0.0066448203 0.01153512 -0.0017654999 0 0 0 0
-0.0063189301 0.01157319 -0.0017358509 0 0 0 0
-0.0060190503 0.011562239 -0.0016649939 0 0 0 0
-0.0057073198 0.01157574 -0.0016149749 0 0 0 0
-0.0054067499 0.01156482 -0.001543902 0 0 0 0
-0.0050948104 0.011578349 -0.001493328 0 0 0 0
-0.0047681704 0.01161618 -0.001462596 0 0 0 0
-0.0044833501 0.01158084 -0.0013722749 0 0 0 0
-0.0041567399 0.011618881 -0.00134181 0 0 0 0
-0.0038573998 0.01160796 -0.001272273 0 0 0 0
-0.00354525 0.01162149 -0.001221768 0 0 0 0
-0.00323184 0.01163496 -0.0011704051 0 0 0 0
-0.0029329741 0.01162401 -0.001100364 0 0 0 0
-0.002633454 0.01161312 -0.001030383 0 0 0 0
-0.002307795 0.01165113 -0.00099956407 0 0 0 0
-0.0019946699 0.01166469 -0.00094845903 0 0 0 0
-0.001682193 0.011678191 -0.00089889899 0 0 0 0
-0.001382964 0.01166724 -0.00082837197 0 0 0 0
-0.00105615 0.0117051 -0.00079647603 0 0 0 0
-0.00077020196 0.011669911 -0.00070754101 0 0 0 0
-0.00044480999 0.01170783 -0.00067677302 0 0 0 0
-0.0001452813 0.0116967 -0.00060588302 0 0 0 0
0.0001406607 0.01166106 -0.00051628798 0 0 0 0
0.000399585 0.01157631 -0.00038687402 0 0 0 0
0.00059265603 0.011368681 -0.0001596048 0 0 0 0
0.00066475198 0.010941841 0.000244917 0 0 0 0
0.00075098104 0.01053783 0.00063062704 0 0 0 0
0.00094488298 0.01033002 0.00085858803 0 0 0 0
0.0012037769 0.010245631 0.00098798098 0 0 0 0
0.00149085 0.01021047 0.001077879 0 0 0 0
0.001816035 0.01024842 0.001108623 0 0 0 0
0.0021298921 0.01026204 0.001158612 0 0 0 0
0.0024684179 0.01032537 0.001170252 0 0 0 0
0.002874726 0.010510259 0.00108279 0 0 0 0
0.0031997401 0.010547791 0.001113084 0 0 0 0
0.00352572 0.01058589 0.001143966 0 0 0 0
0.0038650199 0.0106485 0.0011551679 0 0 0 0
0.00420429 0.01071114 0.001166367 0 0 0 0
0.0045968401 0.01087191 0.001098855 0 0 0 0
0.0048828898 0.01083636 0.0011887681 0 0 0 0
0.0051556197 0.0107763 0.001298364 0 0 0 0
0.0054024602 0.010667549 0.001448298 0 0 0 0
0.0056742602 0.01060755 0.0015573989 0 0 0 0
0.0059480104 0.0105471 0.001667394 0 0 0 0
0.0062206499 0.01048674 0.00177675 0 0 0 0
0.0064800298 0.01040205 0.0019058549 0 0 0 0
0.0067401296 0.01031763 0.0020355091 0 0 0 0
0.00703857 0.01030671 0.0021061231 0 0 0 0
0.0073778997 0.01036917 0.002117502 0 0 0 0
0.00769113 0.01038288 0.0021673921 0 0 0 0
0.0080169896 0.01042095 0.0021979741 0 0 0 0
0.0083299801 0.01043466 0.002248548 0 0 0 0
0.0086681694 0.010497089 0.0022592701 0 0 0 0
0.0089809503 0.010510679 0.0023101741 0 0 0 0
0.0093210898 0.01057347 0.0023222191 0 0 0 0
0.0096737398 0.01066089 0.002312568 0 0 0 0
0.01006656 0.0108216 0.002245662 0 0 0 0
0.01044582 0.01095792 0.002197386 0 0 0 0
0.01082253 0.011110079 0.0021473791 0 0 0 0
0.01123854 0.01129971 0.002040345 0 0 0 0
0.011621431 0.01145136 0.0019781401 0 0 0 0
0.012014939 0.01163403 0.0018957601 0 0 0 0
-0.020897131 0.019862371 0.0078874798 0 0 0 0
-0.02064093 0.019772941 0.0080177998 0 0 0 0
-0.0238437 0.032609999 0.0099041397 0 0 0 0
-0.020877061 0.034048501 0.014788769 0 0 0 0
-0.027247289 0.0344982 0.0070640999 0 0 0 0
-0.017438849 0.019291949 0.0096367197 0 0 0 0
-0.019236449 0.01008777 -0.002432541 0 0 0 0
-0.01892304 0.01010136 -0.0023825578 0 0 0 0
-0.01862427 0.01009041 -0.0023132849 0 0 0 0
-0.01832532 0.01007946 -0.0022425239 0 0 0 0
-0.01803855 0.010043969 -0.0021522001 0 0 0 0
-0.017739629 0.01003302 -0.0020813399 0 0 0 0
-0.01744017 0.010022069 -0.0020111429 0 0 0 0
-0.01714083 0.01001115 -0.001941345 0 0 0 0
-0.0168273 0.010024711 -0.0018892949 0 0 0 0
-0.016528681 0.010013849 -0.001820205 0 0 0 0
-0.016215779 0.010027439 -0.0017685361 0 0 0 0
-0.01591569 0.010016549 -0.0016984469 0 0 0 0
-0.015603689 0.0100302 -0.001648293 0 0 0 0
-0.01527783 0.010068241 -0.001616367 0 0 0 0
-0.0149787 0.010057321 -0.0015471959 0 0 0 0
-0.01467921 0.01004646 -0.0014758529 0 0 0 0
-0.014366159 0.010060079 -0.0014262211 0 0 0 0
-0.014053321 0.0100737 -0.0013755299 0 0 0 0
-0.01374075 0.01008732 -0.001324266 0 0 0 0
-0.01342812 0.01010094 -0.0012734911 0 0 0 0
-0.0131163 0.010114499 -0.001223682 0 0 0 0
-0.01278981 0.01015278 -0.0011923769 0 0 0 0
-0.01245129 0.01021545 -0.0011817601 0 0 0 0
-0.01141998 0.01155558 -0.0021923881 0 0 0 0
-0.011173709 0.01144644 -0.0020428589 0 0 0 0
-0.01084758 0.01148457 -0.0020117101 0 0 0 0
-0.010520791 0.01152276 -0.0019812239 0 0 0 0
-0.01020885 0.01153632 -0.0019310641 0 0 0 0
-0.0099091493 0.01152543 -0.0018600179 0 0 0 0
-0.00959682 0.01153899 -0.001809522 0 0 0 0
-0.0092972703 0.01152804 -0.001739742 0 0 0 0
-0.0089975698 0.011517091 -0.001669188 0 0 0 0
-0.0086989198 0.01150617 -0.0015985409 0 0 0 0
-0.0083992202 0.01149522 -0.0015280501 0 0 0 0
-0.0080990996 0.011484359 -0.001458078 0 0 0 0
-0.0077873697 0.01149792 -0.0014070689 0 0 0 0
-0.0074740201 0.01151148 -0.001357056 0 0 0 0
-0.0071755499 0.01150059 -0.001286988 0 0 0 0
-0.0068623503 0.01151418 -0.001236195 0 0 0 0
-0.0065637296 0.011503261 -0.001165161 0 0 0 0
-0.00623724 0.011541421 -0.001135143 0 0 0 0
-0.0059376899 0.0115305 -0.001063737 0 0 0 0
-0.0056258701 0.01154409 -0.001013034 0 0 0 0
-0.0053127902 0.01155774 -0.00096321898 0 0 0 0
-0.0050006099 0.0115713 -0.000911952 0 0 0 0
-0.0047012698 0.01156035 -0.00084134401 0 0 0 0
-0.0043878001 0.011574 -0.00079109101 0 0 0 0
-0.0040748999 0.01158768 -0.0007413 0 0 0 0
-0.00376302 0.01160121 -0.00068969099 0 0 0 0
-0.0034493099 0.011614799 -0.00063924596 0 0 0 0
-0.0031498801 0.011604 -0.00056964299 0 0 0 0
-0.0028375259 0.011617591 -0.00051830098 0 0 0 0
-0.0025253792 0.01163115 -0.00046772699 0 0 0 0
-0.0022125659 0.011644831 -0.00041770499 0 0 0 0
-0.001899387 0.01165836 -0.00036671699 0 0 0 0
-0.0016013579 0.01164741 -0.00029567551 0 0 0 0
-0.001301388 0.01163658 -0.0002257614 0 0 0 0
-0.00097472698 0.011674589 -0.0001944489 0 0 0 0
-0.00067589094 0.011663791 -0.000124383 0 0 0 0
-0.00036410702 0.011677289 -7.42392e-05 0 0 0 0
-7.74621e-05 0.011641741 1.4792369e-05 0 0 0 0
0.0001413165 0.011483399 0.00020381219 0 0 0 0
0.00029495009 0.01120143 0.000490128 0 0 0 0
0.00036764701 0.01077375 0.00089407497 0 0 0 0
0.000493575 0.010443959 0.0012197039 0 0 0 0
0.00072760502 0.01030956 0.001388616 0 0 0 0
0.00099934195 0.01024968 0.001498191 0 0 0 0
0.0012998399 0.010239091 0.0015685591 0 0 0 0
0.001665135 0.0103512 0.0015419009 0 0 0 0
0.0019780979 0.01036491 0.0015924 0 0 0 0
0.002302977 0.01040502 0.00162309 0 0 0 0
0.002828778 0.01080912 0.0013582531 0 0 0 0
0.00562935 0.010907101 0.001833606 0 0 0 0
0.0058754398 0.010797899 0.001982511 0 0 0 0
0.0061355699 0.010712881 0.0021125041 0 0 0 0
0.0063680699 0.0105792 0.0022805459 0 0 0 0
0.0066003902 0.01044585 0.002449227 0 0 0 0
0.0068473802 0.01033692 0.002599179 0 0 0 0
0.00713271 0.01030146 0.0026890109 0 0 0 0
0.0074460302 0.01031466 0.0027397561 0 0 0 0
0.0077590803 0.010328489 0.002789763 0 0 0 0
0.00811092 0.010415521 0.002780766 0 0 0 0
0.0084102601 0.010404659 0.0028521002 0 0 0 0
0.0087363897 0.01044288 0.002882736 0 0 0 0
0.0090763196 0.0105057 0.0028945291 0 0 0 0
0.0094151106 0.01056834 0.0029050228 0 0 0 0
0.00974127 0.01060674 0.00293658 0 0 0 0
0.010106971 0.01071861 0.0029081011 0 0 0 0
0.01049949 0.01087965 0.00284079 0 0 0 0
0.010905 0.01106508 0.002753946 0 0 0 0
0.01129995 0.01123134 0.0026809198 0 0 0 0
0.0117153 0.01142349 0.002575086 0 0 0 0
0.012105361 0.011615699 0.002492835 0 0 0 0
0.01255011 0.01185645 0.002344341 0 0 0 0
0.0129222 0.01205007 0.0022174201 0 0 0 0
-0.020382361 0.019685522 0.00814752 0 0 0 0
-0.02306217 0.020952061 0.00648933 0 0 0 0
-0.022830181 0.02080854 0.0066684904 0 0 0 0
-0.024173461 0.033716701 0.01376184 0 0 0 0
-0.02002506 0.01013343 -0.002086425 0 0 0 0
-0.019725628 0.0101226 -0.0020169239 0 0 0 0
-0.019412519 0.0101361 -0.001965645 0 0 0 0
-0.01912665 0.01010055 -0.001875534 0 0 0 0
-0.018853379 0.01004049 -0.0017658181 0 0 0 0
-0.01856838 0.010005239 -0.001676511 0 0 0 0
-0.01825518 0.010018921 -0.001624653 0 0 0 0
-0.017942669 0.01003257 -0.00157422 0 0 0 0
-0.017643329 0.01002171 -0.0015034261 0 0 0 0
-0.017331511 0.01003536 -0.001453383 0 0 0 0
-0.01704492 0.0099999607 -0.0013633859 0 0 0 0
-0.01673181 0.01001358 -0.0013126561 0 0 0 0
-0.016432829 0.010002811 -0.001242432 0 0 0 0
-0.01610628 0.01004094 -0.0012111961 0 0 0 0
-0.01580769 0.010030139 -0.001140636 0 0 0 0
-0.01549434 0.01004385 -0.001090482 0 0 0 0
-0.015182249 0.01005753 -0.001039647 0 0 0 0
-0.014869859 0.01007118 -0.00098844001 0 0 0 0
-0.01456956 0.01006035 -0.00091907702 0 0 0 0
-0.014257411 0.01007394 -0.00086756097 0 0 0 0
-0.01395843 0.0100632 -0.00079691998 0 0 0 0
-0.013632691 0.01010139 -0.00076559104 0 0 0 0
-0.01332018 0.01011504 -0.00071562902 0 0 0 0
-0.01302 0.01010421 -0.00064547703 0 0 0 0
-0.01270791 0.01011792 -0.00059442001 0 0 0 0
-0.0123813 0.01015662 -0.00056402397 0 0 0 0
-0.01199007 0.01031742 -0.00063119701 0 0 0 0
-0.01103886 0.01151142 -0.0015226169 0 0 0 0
-0.01073901 0.01150053 -0.001451622 0 0 0 0
-0.01042548 0.01151427 -0.0014015669 0 0 0 0
-0.010113301 0.011527861 -0.0013505309 0 0 0 0
-0.0098139606 0.01151697 -0.001279647 0 0 0 0
-0.0095147397 0.01150614 -0.001210272 0 0 0 0
