ply
format ascii 1.0
comment PCL generated
element vertex 624
property float x
property float y
property float z
property float nx
property float ny
property float nz
property float curvature
element camera 0
property float view_px
property float view_py
property float view_pz
property float x_axisx
property float x_axisy
property float x_axisz
property float y_axisx
property float y_axisy
property float y_axisz
property float z_axisx
property float z_axisy
property float z_axisz
property float focal
property float scalex
property float scaley
property float centerx
property float centery
property int viewportx
property int viewporty
property float k1
property float k2
end_header
-0.010520998 -0.033063296 -0.0096429177 0.084960386 -0.61577135 0.78333092 0
0.0211419 -0.0048887935 0.0012821809 0.20376536 -0.94911313 0.24013324 0
-0.0079667997 0.0045189043 -0.0022395193 0.83038807 -0.55703586 0.012911432 0
0.0088700997 0.011397004 -9.1865661e-07 -0.086981043 0.0026693605 0.9962064 0
-0.025071001 0.019298404 -0.0017784185 -0.9582482 0.25126985 0.1364695 0
-0.011950201 0.014051405 0.0010475803 -0.47414446 -0.41757807 0.77512294 0
0.0051470986 0.025236003 -0.00011821948 0.42260125 0.50090832 0.75531387 0
0.0046527004 -0.0089963954 -0.010495218 -0.34725654 0.92848235 -0.13165683 0
-0.010283399 -0.031956594 -0.0037377186 0.2254898 -0.97364599 0.034174509 0
-0.0150996 -0.0081692953 0.00017638094 0.0046064612 -0.027292028 0.99961686 0
0.0098291999 -3.5394725e-05 0.00010318123 -0.53135389 -0.033238187 0.84649765 0
-0.010399501 0.018792905 0.0039872816 0.21554914 -0.25620294 0.94228369 0
0.0051687006 -0.018758396 -9.3918665e-05 -0.0067532384 0.025111998 0.9996618 0
0.033261899 0.0087216068 -0.009539118 0.42118114 0.6961776 0.58132881 0
0.031719301 0.0034956061 0.0047366805 0.32013261 0.32185104 0.89102578 0
-0.014002501 0.032124605 -0.0086061182 -0.30346733 0.95271158 -0.015759008 0
-0.019616701 -0.018333597 0.0013088811 0.11866563 0.73556679 0.66697812 1.8941071e-40
-0.022485303 0.034743607 -0.016407318 -0.76896769 0.63861239 -0.029372418 4.8221775e+30
-0.0261699 0.020376604 -0.017527819 -0.99337733 -0.08926551 0.072340742 0
0.026939999 -0.012988795 -0.010902018 0.50252104 -0.83342421 0.22994968 0
-0.010451701 0.011420405 -0.0095079178 0.15263155 -0.052943058 0.98686403 0
-0.0068052011 0.024790805 0.0030299809 0.74095064 -0.48750994 0.46187237 0
0.023160899 -0.0063968934 -7.519126e-06 -0.1369115 -0.30911207 0.94111896 0
0.035108399 -0.010424994 -0.017418917 0.47454637 -0.88006717 0.016960297 0
0.022885801 0.0050538061 0.00094138051 -0.32813275 0.54665238 0.77038956 0
0.030381601 0.012916506 -0.014902818 0.45933631 0.88664442 0.053588737 0
0.0036363006 -0.012400195 4.28807e-05 -0.043565005 -0.0001580308 0.99905056 0
-0.026249999 0.020144103 -0.018558918 -0.99121618 -0.12865619 0.030629791 0
-0.011874001 0.021576604 0.0048533813 0.081694029 -0.13862592 0.98696953 0
-0.0074441992 -0.021003596 0.0031196806 0.88678747 -0.033892963 0.460933 0
-0.013382099 -0.036922794 -0.019943718 0.066352844 -0.99309736 -0.096721306 0
-0.0046479013 0.026629806 0.0017144814 0.1838572 -0.018919062 0.98277086 0
0.029522698 -0.013054794 -0.019457417 0.42108178 -0.90702224 0.00095258449 0
-0.0250824 0.017536504 -0.0071670185 -0.95648175 0.18934755 -0.22201407 0
0.012027902 -0.022655996 -0.0064812182 0.50078189 -0.86551666 -0.0099231182 0
-0.0080406014 0.024904504 0.0041582813 0.5605002 -0.020627409 0.82789731 0
0.016221 -0.010257294 3.7781148e-05 -0.026454553 0.10762436 0.99383956 0
0.011776501 -0.014504096 2.2780896e-05 -0.011525537 0.071071714 0.99740458 0
-0.016727701 0.033176705 -0.010648218 0.093849823 0.30579212 0.94746149 0
-0.0073829987 -0.020609995 0.0017198805 0.99622405 -0.0055790762 0.086640805 0
-0.0039377995 -0.014233196 0.00058708078 0.40967605 -0.1743741 0.89541006 0
-0.024348 -0.020500494 -0.0033981197 -0.92423141 -0.37833631 0.051555939 0
-0.019176899 -0.033841494 -0.011880018 -0.12470177 -0.35486692 0.92656296 0
-0.018190201 0.037176304 -0.018546317 -0.26025149 0.95683122 -0.12939575 0
0.0220026 0.0059547061 0.0009821814 -0.24168131 0.31763121 0.91689724 0
-0.022857301 -0.0053939959 7.8281388e-05 -0.030518556 0.0084604286 0.99949837 0
0.0090206983 0.024552004 -0.0035982192 0.5265308 0.84972608 0.027032794 0
-0.026154 -0.018698096 -0.014469317 -0.99291891 0.10640258 0.052825809 0
-0.023322601 -0.023009095 -0.0047889189 -0.91327327 -0.4072316 0.0097170398 0
0.014421599 0.021349203 -0.007296619 0.49074829 0.87032068 -0.041328549 0
0.0082970997 0.0041043051 -0.00082741899 -0.56311935 -0.27378044 0.77970552 0
0.0052635004 -0.0090641947 -0.00025231874 -0.069093488 0.33510783 0.93964285 0
-0.0209559 -0.021709496 0.0018755805 -0.83478618 0.15192837 0.52919734 0
-0.0039891009 0.023354705 0.0005303811 -0.5433265 -0.59499514 0.59226429 0
6.0300397e-05 -0.0091325948 -0.0071886186 0.044109289 0.99337852 -0.10608261 0
-0.0074048983 -0.034874097 -0.016589718 0.54794765 -0.83629835 -0.018935787 0
-0.0063608997 -0.018190196 0.0012692806 0.84473968 -0.34171844 0.4118779 0
0.0027486009 -0.018639896 -0.0001143191 -0.0066359662 0.0077950847 0.99994761 0
0.0057033012 -0.024978295 -0.016305918 0.63351041 -0.73057508 0.25480324 0
0.016895698 0.020205004 -0.0045054187 0.50152367 0.8650279 0.014167882 0
-0.0016034995 -0.010175396 -0.00017941967 0.25490224 0.23183523 0.93876362 0
-0.013939802 0.028659604 0.0049172803 -0.045349542 0.34762627 0.93653584 0
-0.018719101 0.013184403 4.28807e-05 -0.092785776 -0.078750037 0.99256694 0
-0.0058403988 -0.020714397 -0.00022621863 0.22707698 0.0629237 0.97184181 0
0.027561001 -0.012323995 -0.010488318 0.54687989 -0.81099766 0.2078587 0
-0.012834001 0.013119603 0.00065548049 -0.21775182 -0.15448174 0.96370095 0
-0.016416602 0.037335303 -0.014629818 -0.10460141 0.98767036 0.11647248 0
0.0044378988 0.026939405 -0.0069120186 0.46450996 0.87460804 -0.13889307 0
-0.011916601 0.037527606 -0.013717818 0.3404856 0.93529588 0.096391067 0
-0.005018699 -0.0071684946 -0.0029268186 0.50745273 0.85882241 -0.0701131 0
-0.015955502 0.019199703 0.0041291816 -0.38942453 -0.5943436 0.70363641 0
-0.021208497 -0.027972296 -0.0028968193 -0.85128975 -0.51767325 0.085558951 0
0.013974001 -0.0025658947 0.0010415812 -0.46982819 -0.41207317 0.78067738 0
-0.0082718981 -0.032402094 -0.0096549187 0.30613434 -0.7303468 0.6106351 0
0.0314661 0.012149706 -0.018609319 0.49394628 0.86947715 -0.0051394189 0
0.0141426 -0.0072671943 -0.00013081916 -0.0041694073 -0.063165858 0.9979943 0
-0.012674701 0.033042606 -0.0039147185 0.12267445 0.98578119 0.11483242 0
0.0050885985 0.021963906 0.0004283812 0.15199965 -0.040049061 0.9875688 0
-0.0261162 -0.018092996 -0.016555518 -0.99443007 0.10519242 -0.0065870997 0
-0.012069 0.0029850041 -0.00010771863 0.070773348 0.029656501 0.99705142 0
-0.016393799 -0.032191798 -0.0021795195 -0.3694731 -0.92918015 0.010674386 0
-0.025624201 0.005443804 -0.001917319 -0.99984384 -0.005497233 0.016797155 0
-0.025700701 0.00045750372 -0.0022836193 -0.99358314 0.045506656 0.1035453 0
-0.0139578 -0.0056723952 -7.5619297e-05 0.025027508 0.017550284 0.99953264 0
0.038265303 -0.008035793 -0.016516518 0.76064414 -0.64908254 0.010595798 0
0.010011598 0.022337405 -0.010250118 0.34458452 0.85110587 0.39608124 0
0.0053343009 -0.0080330949 -0.0031443189 -0.49144307 0.86898106 -0.057928588 0
0.016144801 -0.018827096 -0.012762617 0.7094124 -0.70405293 0.032303717 0
-0.0081743998 -0.0045341956 -0.0072474186 0.85422605 0.47945088 0.20105897 0
0.037007399 0.0045096064 -0.011765718 0.15266943 -0.19538537 0.96877062 0
0.037419602 -0.0067904931 -0.011837118 0.49805292 -0.31919742 0.80626065 0
-0.0234168 0.018618602 0.00013978108 -0.078836113 -0.0073079537 0.99686074 0
-0.024467701 0.013864803 -6.1219187e-05 -0.15407844 -0.072693005 0.98538089 0
0.00052560068 -0.016304096 2.9680878e-05 0.014107266 0.0034746102 0.99989444 0
0.0032733004 -0.0093641952 -0.010497918 -0.2919485 0.94166577 -0.16742678 0
0.032037899 0.0062199067 0.0011582806 0.46888357 0.74425274 0.47564277 0
0.0025419006 -0.019599596 -4.6819077e-05 -0.012762062 0.044153627 0.99894315 0
-0.026134804 0.029228702 -0.014652617 -0.93804586 0.34647298 0.0051475689 0
0.0059592007 -0.0074660946 -0.0027423196 -0.63862473 0.76867545 0.036009472 0
0.020222099 -0.017755194 -0.0024183188 0.48026782 -0.87604117 0.043529347 0
-0.02547 0.0029364037 -0.0010959193 -0.90598649 -0.033375915 0.42198884 0
0.0341505 0.0087894071 -0.010068319 0.36983451 0.59226936 0.71584874 0
-0.016931402 0.032352004 -0.0060900189 -0.45319033 0.86087078 -0.23134397 0
0.0066899988 0.025789805 -0.0018336195 0.50016457 0.78737199 0.36038968 -1.8355807e-28
-0.018276602 0.031668603 -0.010812918 -0.48934278 0.37901461 0.78542441 5.4444609e-11
-0.022517998 -0.033414897 -0.013235418 -0.52688348 -0.59314603 0.60874593 0
-0.016281901 0.028509904 0.0047588814 -0.15930872 0.2820071 0.94609344 0
-0.0068748007 0.013467904 0.0020228806 0.44976074 -0.17879342 0.87507033 0
0.0085121999 -0.0037430951 -0.00069271959 -0.66199362 0.291087 0.6906755 0
0.0145785 -0.009565495 -8.6419655e-05 -0.0098670991 0.066472769 0.99773943 0
-0.0121869 -0.036442496 -0.012349218 0.10447755 -0.83393884 0.54187679 0
0.0025527007 -0.017412296 -5.7619436e-05 0.010316248 -0.0040221992 0.99993867 0
-0.0257346 0.00081990374 -0.0059235184 -0.99680519 0.0159635 -0.078260437 0
-0.0064998008 0.023763303 -0.0059643188 -0.26817766 0.90177107 0.33895394 0
-0.0054932991 -0.015312596 0.0010760811 0.64538294 -0.26288348 0.71719807 0
-0.0247101 -0.017797496 -0.011165418 -0.93171495 -0.087994531 0.35236928 0
0.013285799 0.016738506 0.00011128038 0.061075628 -0.093912132 0.99370533 0
-0.017403299 -0.014452797 0.00028168113 -0.18026713 0.21456851 0.95992917 0
0.036239401 0.00068490638 -0.0052284184 0.99702859 0.077023447 -0.001156457 0
-0.025218299 0.018448804 -0.0012546189 -0.95809263 0.18330607 0.22013044 0
0.0340137 0.0059526069 -0.0049323188 0.81829965 0.57081193 0.067524999 0
-0.019317303 0.030427504 0.00032428131 -0.66714483 0.56539351 0.48502359 0
0.013613699 0.020861404 -0.017968217 0.55675685 0.82559907 0.091694951 0
-0.0015509988 -0.025436996 -3.8118662e-05 -0.0012833489 -0.0057221861 0.99998277 0
-0.0118416 -0.0057938956 -3.3019111e-05 -0.024358442 -0.038227338 0.99897212 0
-0.0097589996 0.00079410436 -0.010365618 0.96981239 -0.05739579 -0.23700134 0
0.0344157 -0.0051206937 -0.0043707187 0.84048784 -0.53928882 -0.052418452 0
-0.0089159999 -0.00058289553 -0.0058656186 0.98425978 -0.076430269 0.15934555 0
0.024583202 -0.015029094 -0.014274318 0.3813816 -0.89488435 0.23179772 0
0.018537899 0.015284406 -3.7219004e-05 -0.071668036 -0.041761763 0.9965539 0
0.00075870124 -0.029311795 -0.0034623195 0.52616203 -0.85029948 0.012017014 0
-0.0076758014 0.032151304 -0.0033561196 0.22592998 0.9724319 0.057721797 0
0.016187398 0.019503003 -0.018820817 0.51692998 0.84634751 0.12837169 0
0.020830501 0.0037914056 0.0030998804 -0.44247833 0.56074655 0.69984019 0
-0.0114285 -0.026923794 0.0049262815 0.13434862 -0.037636269 0.99021918 0
-0.0061634993 -0.019086296 -0.00030271857 0.3924256 -0.36717752 0.8433165 0
-0.0241086 0.0037053037 -0.00010651946 -0.23383684 -0.15593746 0.95968944 0
0.0051899995 0.0079548052 -0.0057231188 -0.51181281 -0.85879499 0.022776421 0
-0.0030018003 0.0081942054 -0.0022122189 0.41864824 -0.90082288 0.11511653 0
0.0048539992 0.0083940048 -0.010662618 -0.4408972 -0.89220953 -0.09783598 0
-0.0072564003 -0.0049622958 -0.001087819 0.62717426 0.65810364 0.41659576 0
-0.026392501 -0.022768198 -0.017343618 -0.98965389 0.14290591 -0.012772047 0
-0.012317698 -0.036991496 -0.015669618 0.15931809 -0.98475999 0.069753394 0
0.035916001 -0.0012806936 -0.0068379184 0.96737301 -0.19913849 -0.15663126 0
0.012523501 -0.022290295 -0.011617218 0.38206586 -0.72471654 0.57342106 0
-0.025687201 0.015549604 -0.014669118 -0.98401755 -0.11853582 0.13288601 0
0.019744201 -0.016314594 -0.00010621883 0.15809576 -0.19309564 0.96835929 0
0.020218201 -0.018066294 -0.0053481185 0.53536361 -0.84405643 -0.030897969 0
-0.00025170122 0.027769204 0.0004283812 0.24927795 0.56097686 0.78940833 0
-0.0107484 0.0014406045 0.00011098087 0.095443681 0.060271986 0.99360847 0
0.0048267012 -0.025998896 -0.016436117 0.66775274 -0.70000863 0.25316882 0
-0.0207738 -0.015718497 0.00035218074 0.01304803 0.20001176 0.97970659 0
-0.018543901 0.029286304 0.003083681 -0.61256772 0.61952639 0.49086449 0
0.00042480128 -0.029500496 -0.0045657186 0.51567322 -0.85626197 -0.029944774 0
0.0059909988 0.024681903 -0.012393318 0.53756517 0.84321684 -0.0029903997 0
-0.023221198 -0.030075295 -0.011649918 -0.21388695 -0.38425544 0.89810914 0
0.013934102 -0.021590997 -0.0076521188 0.48305711 -0.87538964 0.018677898 0
-0.0086225998 0.0038175045 -0.008077818 0.89856058 -0.43867531 -0.012368724 0
0.011446198 0.021469805 -2.6719272e-05 0.080623806 0.30581471 0.94867122 0
-0.021693598 -0.024831597 0.00084718131 -0.88791752 -0.23008311 0.3983269 0
0.024865801 -0.015309295 -0.017484618 0.47444633 -0.88026291 -0.006154954 0
-0.025071301 0.019142106 -0.0052926186 -0.96145743 0.26078686 -0.087119505 0
-0.0084810006 0.0069978046 3.0881165e-05 0.070959181 -0.087185517 0.99366164 0
-0.0071553015 0.034695305 -0.012818718 0.55517101 0.79201508 0.25396293 0
0.0239127 0.0013605058 0.0045446814 -0.19577949 0.046980567 0.97952187 0
0.025784399 0.014938805 -0.0060279183 0.53381366 0.83929193 -0.10311174 0
-0.0251364 -0.022206295 -0.010857018 -0.78423274 0.10619903 0.61131078 0
0.034285501 0.004276806 0.00051058084 0.70679921 0.61465502 0.3501918 0
-0.017786702 0.037332006 -0.014532018 -0.081141807 0.96577841 0.24634953 0
0.0083630988 0.014002505 -0.00010261908 0.0053586899 -0.018016109 0.99982327 0
0.0047426987 0.026974205 -0.0053055184 0.45997965 0.88380587 -0.085474722 0
-0.015773101 0.031812005 0.00079708098 -0.14500992 0.89748412 0.41652668 0
-0.01812 -0.036239397 -0.013899918 -0.234023 -0.88415313 0.40435925 0
-0.023694901 0.0088986037 2.608113e-05 -0.054457854 0.0018459163 0.99851435 0
0.011558099 0.015807005 1.7980859e-05 0.0037110378 -0.046037234 0.99893278 0
0.0051720012 -0.022610096 1.7980859e-05 -0.025485609 -0.04495411 0.99866384 0
-0.024111301 0.0018069037 -0.00012121908 -0.25821304 -0.020834699 0.96586329 0
0.034052998 0.0061305068 -0.0070101186 0.86998248 0.48145249 0.10646188 0
-0.020197501 0.0047685038 9.0280919e-05 -0.061101157 0.033035222 0.99758476 0
0.035253901 0.010406706 -0.014330117 0.4262754 0.9038403 0.036904838 0
-0.0257865 -0.017651396 -0.013257918 -0.95899081 0.1633345 0.23164319 0
-0.0157797 -0.032087695 -0.0072798189 -0.22956623 -0.95558327 -0.18482405 0
0.0230652 -0.012157494 -0.00012571961 -0.077281877 -0.01906091 0.99682701 0
-0.016848899 -0.031844698 -0.0043329187 -0.42091107 -0.906717 0.026422352 0
0.030805498 -0.0029036938 0.0049172803 0.12101751 -0.13952847 0.98279524 0
-0.0053094011 0.026181905 0.0028103807 0.75194061 -0.26122817 0.60526443 0
-0.018809102 0.032382905 -0.011134218 -0.28859213 0.20031686 0.93626267 0
-0.012676802 0.037480205 -0.012887417 0.16416395 0.91087216 0.37863171 0
-0.013017301 -0.004507496 1.55814e-05 -0.0060949014 0.012562359 0.99990249 0
0.010624799 0.023670904 -0.0032619194 0.49976301 0.85605794 0.131916 2.8978852e-42
0.025438799 -0.010445094 -3.42194e-05 0.085281476 0.063836709 0.99430972 1.7886501e+28
0.019239901 0.009365106 6.2080842e-05 0.0076084095 0.052606359 0.99858636 0
-0.010588201 0.026949905 0.0051206811 0.20118593 0.013588241 0.97945881 0
0.0246222 -0.0035618942 0.0044975807 -0.19161685 -0.2734817 0.94259781 0
0.00037739874 0.028453503 -0.00020371936 0.3037923 0.61519557 0.72749192 0
0.0249945 0.015431106 -0.0031053196 0.50866878 0.85900748 -0.057984751 0
-0.016639201 0.036029406 -0.012322218 -0.15195234 0.71951854 0.6776455 0
0.0074121002 -0.0055160942 -0.0026658196 -0.74682629 0.66295254 -0.05238653 0
0.0124125 0.00075780536 0.0010142807 -0.32727998 0.12406597 0.93674719 0
0.0311247 0.0090960059 -0.0067506181 0.66201669 0.74917746 -0.021609481 0
-0.0031298993 -0.013550695 0.00029848068 0.26542962 0.010131596 0.96407694 0
-0.0086043011 0.014401505 -0.0095934188 0.13953051 -0.0036561799 0.99021101 0
-0.0038816985 -0.030147295 -0.0002685193 0.035672914 -0.40823373 0.91218013 0
-0.0259245 -0.019208997 -0.020204417 -0.99418169 0.082455486 -0.06930992 0
0.0075300001 -0.0049967943 -0.0018432196 -0.79763997 0.59644663 -0.08956477 0
0.034149598 -0.0034799939 0.0016925812 0.81308126 -0.36906412 0.45021164 0
-0.0067685992 -0.022646096 0.0010259807 0.90500867 0.11448694 0.4096975 0
-0.0256998 0.0010728037 -0.0034308191 -0.99686283 0.070580348 0.035818253 0
0.004520101 -0.023919296 -6.3919273e-05 -0.006772371 0.0063736071 0.99995673 0
-0.005610601 0.029465405 0.0029144804 -0.23914449 0.96919131 -0.058976706 0
-0.0052349991 -0.017846696 0.00033328123 0.47294813 -0.25910351 0.8421315 0
-0.010609798 -0.019556995 0.0040121814 0.059169944 0.24500978 0.9677133 0
0.022045201 0.017196907 -0.0021996193 0.46632156 0.85586476 0.22369561 0
0.0393264 -0.0049004932 -0.012922818 0.74968624 -0.20102836 0.63052201 0
-0.021967797 -0.035053495 -0.014739318 -0.58523053 -0.79631078 0.15295227 0
0.033838801 -0.0050192932 -0.010021519 0.88815165 -0.093277484 0.44998443 0
0.0067154989 0.022413004 -6.4519423e-05 0.20123942 0.045980882 0.97846222 0
-0.0257487 -0.015692998 -0.018566117 -0.99196506 0.11622857 -0.049964104 0
0.035463899 0.0034470065 -0.0046488186 0.91483444 0.40033808 0.052985925 0
-0.0071183988 -0.019373996 0.0016733811 0.93270493 -0.33341515 0.13746218 0
0.0027942006 -0.011129696 -9.7519529e-05 -0.049552999 0.079078823 0.99563593 0
-0.0088515002 0.0020706044 -0.0086337179 0.94569141 -0.20738256 -0.25032037 0
-0.017271599 -0.029297994 0.0033248807 -0.35144284 -0.63036263 0.69219279 0
-0.0081437994 -0.031835694 -0.0089331185 0.37235299 -0.80466306 0.46246156 0
-0.0080604022 0.035319302 -0.020929219 0.57677788 0.8131395 -0.078303806 0
-0.016463399 -0.033689097 -0.011763318 -0.085716121 -0.17859462 0.98018193 0
0.029769 -0.0068363938 0.0013304807 0.27240908 -0.85748363 0.43648049 0
-0.012008699 -0.013050896 0.0009125814 -0.28649655 0.44887891 0.84642035 0
0.038499601 -0.0026534935 -0.011752218 0.37562177 0.0084177554 0.92673481 0
0.0032234988 0.027548105 -0.015143117 0.72253036 0.67317963 0.15741423 0
-0.025557298 0.016790703 -0.0021276188 -0.98572767 0.16164592 0.047027338 0
-0.0253428 -0.0062450962 -0.00049981958 -0.77919042 0.010572072 0.62669814 0
0.0012260987 0.028722303 -0.00078871922 0.36898008 0.64046663 0.67354006 0
-0.0046202987 -0.028902296 -0.00012091957 -0.06518326 -0.086965077 0.99407649 0
-0.0021774003 0.0085836053 -0.0011391196 0.35193446 -0.84523034 0.40215394 0
0.010906501 -0.015920395 9.280443e-06 -0.071679167 -0.0049083484 0.99741566 0
0.040708799 -0.0018479932 -0.020120716 0.959943 -0.20665434 -0.18921804 0
0.0086399997 0.002961905 -0.0060699182 -0.95575631 -0.29321989 0.023495162 0
-0.023217898 -0.026699096 -0.0097323181 -0.43561822 -0.34692231 0.83059108 0
-0.0011199012 0.027526805 0.00077368098 0.26250196 0.55928725 0.78631449 0
-0.0179874 0.012597904 0.0001313813 -0.072339617 -0.080206923 0.99414974 0
0.031741802 -0.0029000938 0.0048164809 0.2616173 -0.16378722 0.95117301 0
0.037893001 0.0082278065 -0.013680018 0.70319587 0.67552042 0.22178337 0
-0.0108828 -0.025448697 0.0049241805 0.088454746 -0.049048666 0.99487185 0
-0.020646296 -0.026682295 0.0020348814 -0.86228865 -0.36432204 0.35174969 0
0.036039598 -0.010018494 -0.017045418 0.51421672 -0.85761005 0.0092886938 0
-0.023641797 -0.033359993 -0.016655117 -0.76814091 -0.63139826 -0.10628247 0
-0.006745202 0.032570403 -0.010072818 0.43216506 0.70793986 0.55861837 0
-0.0025140007 0.017331604 -0.0001899194 0.04482099 -0.14623147 0.98823452 0
-0.025666201 -0.0029330964 -0.0041868188 -0.99839884 0.056072615 -0.0074626422 0
-0.018840302 -0.024383996 0.0043211807 -0.41289344 -0.040365282 0.90988445 0
-0.016489198 -0.036581393 -0.013630219 -0.25008857 -0.86907816 0.4268007 0
0.034876499 -0.010091094 -0.012505518 0.53343374 -0.79182076 0.29743624 0
-0.00039929879 -0.028199395 -1.0219216e-05 0.052374218 -0.12754485 0.99044901 0
-0.013558199 -0.032584798 -0.0021642186 -0.0015078071 -0.99230319 0.12382296 0
0.0095298002 0.0051393057 -0.00026161931 -0.19706918 -0.080024749 0.97711807 0
0.0224976 -0.009567894 -0.00014971867 0.053115666 -0.028811134 0.99817264 0
0.0263616 0.013118406 -0.00016021953 0.17212968 0.1532678 0.97307771 0
0.031546202 -0.009088194 -0.0035049196 0.7550782 -0.64825332 0.098104365 0
0.0209562 0.017212206 -0.016961718 0.28713298 0.95437723 0.081967607 0
0.020525999 -0.0041798945 0.0032051806 -0.35849658 -0.59006774 0.72339493 0
-0.0065289014 0.030315306 0.00026098118 0.30067107 0.5484497 0.78025621 0
0.035254803 -0.0037511936 -0.00087721867 0.88229048 -0.43532529 0.17904015 0
-0.014817001 0.025441503 0.0051827813 0.034966666 0.005068908 0.99937558 0
0.035543699 -0.0035600935 -0.0029718194 0.89448684 -0.4450185 0.043032933 0
-0.0059832009 0.031653304 -0.0029055197 0.21558115 0.97286469 0.084017746 0
-0.026038501 -0.019202998 -0.018807318 -0.99388736 0.08421281 -0.071387835 0
0.0049760989 0.025256105 -0.012963917 0.54985523 0.83255911 0.06711562 0
-0.021238502 0.035809804 -0.013887018 -0.54034448 0.78411895 0.30526301 0
0.0038868007 -0.017441696 -0.00011881963 0.011519144 -0.0017050391 0.99993217 0
-0.021884698 -0.034994397 -0.015648318 -0.56857532 -0.82057732 -0.058095634 0
-0.0057303002 0.006709205 -0.00069781917 0.39630935 -0.53646916 0.74507695 0
-0.0263019 -0.022643398 -0.012929718 -0.97639281 0.061148781 0.20716657 0
0.0130485 0.0060285055 -2.7319416e-05 0.0051395399 0.038856458 0.99923158 0
0.013945499 0.011928006 -0.00012901872 0.045119844 -0.028341239 0.99857944 0
-0.0256305 -0.0024569966 -0.0020343191 -0.9937588 0.015500335 0.11046798 0
0.012840301 -0.021575697 -0.00038401858 0.21644714 -0.49438775 0.84186184 1.0764717e+21
0.038556904 0.0079377061 -0.016953617 0.76734221 0.63585347 -0.082924619 0
0.015378598 0.018569706 1.948066e-05 0.11800136 0.052224595 0.99163914 0
0.0043620006 -0.016403096 -9.5419586e-05 -0.016030412 -0.021111244 0.99964857 0
-0.012961199 -0.030882595 0.0027371808 0.061611135 -0.91902101 0.38936436 0
-0.025263 -0.0082625961 -0.00049051904 -0.60178602 0.060860243 0.7963351 0
-0.025399201 0.017570702 -0.00097591954 -0.88993424 0.21058562 0.40456238 0
-0.012059999 -0.032149497 -0.0087921182 -0.044210479 -0.68523961 0.72697461 0
-0.018417301 0.018913506 0.0021815815 -0.33154964 -0.83936876 0.4307377 0
0.034927499 -0.004336494 -0.0040446185 0.84913701 -0.52679706 -0.038094144 0
-0.0131916 -0.010047596 1.7380715e-05 -0.031334836 0.10566732 0.99390763 0
-0.011928599 -0.031998593 -0.0003201194 0.2387087 -0.89651716 0.37319598 0
0.014975999 0.020273104 -0.011136319 0.58202684 0.80880755 0.084113128 0
-0.024130799 0.0077556041 -0.012116718 -0.99731511 -0.066790216 0.030026825 0
0.020182502 -0.017975995 -0.0014538188 0.52524883 -0.84807092 0.069924131 0
0.0060720006 -0.0079205949 -0.0009699192 -0.67379791 0.25092328 0.69500643 0
-0.011360999 -0.019998295 0.0042641805 0.045015719 0.24513011 0.96844447 0
0.0162159 0.020398503 -0.0010839186 0.5652343 0.7776677 0.27521485 0
0.0225855 -0.0046295943 0.00094468071 -0.15472451 -0.47546008 0.86602426 0
0.0010773013 -0.028924195 -0.016466418 0.56257278 -0.82662696 0.014135572 0
-0.025559699 0.0062403041 -0.0011247195 -0.90308094 -0.045709267 0.42703122 0
-0.020180099 -0.036017098 -0.014836218 -0.37044576 -0.92113942 0.11946587 0
-0.0155115 -0.0038540957 -4.8919021e-05 -0.084283113 0.15603706 0.98414874 0
0.034256998 0.010861506 -0.013854318 0.40363327 0.9088515 0.10520967 0
-0.0016215013 0.028359903 0.0004400812 0.2686128 0.53590369 0.80040878 0
-0.025325699 -0.015879897 -0.012750918 -0.94855189 0.15402488 0.27663282 0
-0.016997999 -0.037012793 -0.018726317 -0.22328198 -0.97260565 -0.064679287 0
0.0268443 0.013837205 -0.0074010189 0.60851365 0.76109856 -0.22458863 0
0.0089144995 -0.0048125945 -0.0003516186 -0.31640065 0.18773523 0.92986345 0
0.0036179987 0.027309304 -0.017007917 0.69018674 0.7233116 -0.021505956 0
0.031357799 -0.0059483936 0.002014481 0.43002307 -0.78945297 0.4380002 0
-0.021976199 0.020648705 0.00016978048 -0.12589747 -0.047098417 0.99092454 0
0.0280605 -0.0075074942 0.00070918055 0.013538589 -0.77090937 0.636801 0
-0.0087120002 -0.0027164954 -0.0019086186 0.91783583 0.38458088 0.098361798 0
0.028849201 0.013589405 -0.016382417 0.42994517 0.90263987 0.019707525 0
-0.0090509998 0.0003687045 -0.0027924187 0.99305284 -0.031625681 -0.1133399 0
0.019858502 0.017506804 -0.016618518 0.30235738 0.92392778 0.2343875 0
0.0238881 0.013038905 2.9980391e-05 0.045106031 -0.047858328 0.99783516 0
-0.0076005007 0.0065082046 -0.00017401949 0.27499923 -0.26102543 0.92533302 0
0.040240198 0.0030744064 -0.013754718 0.83571124 0.11793115 0.53635699 0
-0.005805301 0.031671006 -0.010264218 0.460491 0.77062392 0.44055289 0
-0.0069788988 -0.027810896 -0.00011611953 0.48703906 -0.26524049 0.83213001 0
0.011193899 0.022799104 -0.016627217 0.31950951 0.91523999 -0.24545781 0
0.038220599 -0.0080000935 -0.014977818 0.73589414 -0.67089152 0.091456354 0
-0.025723498 -0.026945099 -0.011450418 -0.88004321 -0.13005824 0.45673719 0
-0.025996499 0.018785402 -0.017922917 -0.98659086 -0.16189983 0.020661596 0
-0.025515899 0.0039753038 -0.0037488185 -0.99853218 -0.054160573 -0.0002468407 0
-0.016401902 0.032061305 0.00018658116 -0.11185218 0.88806319 0.44590673 0
0.028653299 0.012712806 -0.011803518 0.36601013 0.78689522 0.49682224 0
-0.016849199 -0.015138297 0.00067168102 -0.2593697 0.29447293 0.91978961 0
0.029263798 -0.013223395 -0.014133018 0.47071815 -0.86001205 0.19698687 0
-0.0109971 -0.032034297 -0.0087396186 -0.031131892 -0.88274944 0.46881157 0
0.0040053008 -0.018579295 -5.4618715e-05 0.015781706 0.023048282 0.99960971 0
0.027026098 -0.013640694 -0.0075933188 0.59712571 -0.75426692 -0.27298781 0
0.034212299 0.0036024062 0.0021938805 0.70991689 0.60880202 0.35408783 0
-0.0072273011 0.025291204 0.0037220814 0.71834713 -0.088555515 0.69002557 0
-0.0199365 -0.021599095 0.0034427806 -0.7465831 0.25910211 0.61276406 0
-0.024234299 0.021959404 -0.0031839195 -0.9304266 0.36200321 0.057096522 0
0.0021654007 -0.012058196 -0.00014791936 -0.0080201067 0.05136599 0.99864763 0
0.035747401 -0.00070679362 -0.00088981946 0.94476318 -0.077966347 0.31834555 0
0.017798098 0.017906705 -0.00018901862 0.089900203 0.30664721 0.94756812 0
0.0303615 0.0097869057 -0.0099387178 0.27895245 0.84890836 0.44893223 0
0.036008399 0.0042768065 -0.011577617 0.33049509 -0.1426159 0.93297029 0
-0.026186999 0.024214203 -0.012590418 -0.95523822 0.0086185755 0.2957122 0
0.0059259012 -0.023397297 -0.00010171942 0.01084175 -0.061028656 0.99807715 0
0.039608099 -0.0039443937 -0.013074018 0.76819927 -0.25653523 0.58656585 0
-0.012589501 0.029336704 0.0047354815 0.017305596 0.37508607 0.92682844 0
-0.0015564014 0.030975904 -0.020151917 0.51949149 0.85393 0.030532083 0
0.0088881012 -0.024455696 -0.0010839186 0.44417614 -0.74864697 0.49217403 0
-0.0176691 0.020512804 0.0042599803 -0.21668559 -0.48166952 0.84914178 0
0.031181399 -0.012303594 -0.020407818 0.40832043 -0.91280556 0.0077808197 0
-0.024514198 0.013781104 -0.011347218 -0.97717035 -0.20586765 0.052503619 0
0.013581001 -0.021715196 -0.0049584187 0.49293408 -0.86985987 -0.018972365 0
-0.0020379003 0.0095187053 -0.0003057193 0.25473356 -0.46506968 0.8478331 0
-0.025244698 -0.030784195 -0.017347816 -0.83276421 -0.55189228 0.043805029 0
-0.021501899 0.021474905 0.00054778083 -0.46368715 -0.1051164 0.87974125 0
-0.0253872 -0.012098997 -0.015803717 -0.98782635 0.11860464 0.10065828 0
0.014200201 -0.021425996 -0.0066723186 0.47834495 -0.87799639 0.017566826 0
-0.0222531 0.0037416038 -4.1719526e-05 -0.015500205 -0.034412976 0.99928743 0
-0.023292299 -0.033086397 -0.020106317 -0.7181232 -0.67917514 -0.15172432 0
0.0247533 -0.015445494 -0.0060057184 0.52793181 -0.84640986 -0.069845967 0
-0.0112851 0.0080985045 -4.0218605e-05 -0.0018837466 -0.0050808978 0.99998534 0
-0.018722698 -0.036362097 -0.017472917 -0.33675367 -0.93885058 -0.071808703 0
0.010059 -0.012158096 3.5807491e-06 0.017175555 -0.029083554 0.9994294 0
-0.019127399 -0.029743195 -0.010873819 -0.69172442 -0.50888103 0.51240361 0
-0.023634298 -0.033170395 -0.015268818 -0.78221649 -0.61461812 0.10189237 0
0.040453203 0.0043944065 -0.017615417 0.93725866 0.34364915 -0.058749534 -2.1585207e-28
0.0078233993 0.015568205 -1.981929e-05 -0.12774952 0.042270172 0.99090523 1.3801544e+31
0.034186199 -0.0055787931 -0.0093885185 0.7376858 -0.094433814 0.66850728 0
0.0227973 0.015531605 -0.0099516176 0.40928286 0.89124346 -0.19537807 0
0.022122901 -0.015466194 -7.8319383e-05 0.10573927 -0.16251341 0.98102421 0
-0.014444401 0.037718404 -0.017696718 -0.012278051 0.99383855 0.11015557 0
-0.020277901 -0.023829596 0.0036011809 -0.70953816 0.029236924 0.70406026 0
0.021721501 0.016008606 -1.1118874e-05 0.21379043 0.34247541 0.91487932 0
0.0025041006 -0.015352195 -9.3319642e-05 0.015480667 0.0002738928 0.99988008 0
-0.025717201 -0.014669397 -0.0036837184 -0.9985218 -0.047819994 -0.025834132 0
0.012016801 -0.022702496 -0.0038685189 0.51403451 -0.85660493 -0.044682298 0
-0.0181062 -0.0068885954 9.4181298e-05 -0.0080553582 0.0062398161 0.99994802 0
-0.025099799 -0.0020918963 -0.015788417 -0.85673076 -0.47240412 -0.20699507 0
0.013045801 -0.016525194 0.00013738051 0.057488374 -0.033981867 0.99776763 0
0.018675599 0.016193705 1.1812896e-06 -0.051810723 0.024774043 0.99834955 0
-0.010536902 0.034743004 -0.010515018 0.22529472 0.68552554 0.69231272 0
-0.018762 0.018623104 0.00085498096 -0.06379135 -0.64372408 0.76259422 0
0.0071397005 -0.0064661945 -0.0049065184 -0.6778636 0.73089564 -0.079325646 0
-0.024354 0.0047382037 -0.013036218 -0.89428115 0.35853216 0.26779833 0
0.027387301 -0.0017168939 0.0049166814 -0.037945636 -0.074373215 0.99650824 0
-0.0107901 -0.012433795 0.00091288087 -0.2570911 0.44533059 0.85766238 0
-0.0088559985 -0.034058396 -0.010916418 0.32130399 -0.64610046 0.69232798 0
-0.018130802 0.030700205 -0.008819418 -0.5157575 0.84628379 0.1334088 0
0.0310962 -0.0018011937 0.0048857811 0.10571466 -0.013153021 0.99430954 0
0.0304476 -0.0059450939 0.0027098805 0.36307168 -0.81682163 0.44830948 0
-0.021680102 -0.015902696 0.00056008098 0.018665135 0.25498229 0.96676552 0
0.0031806009 -0.016043395 -6.9018824e-05 0.017083673 -0.0043444014 0.99984461 0
-0.014835599 -0.037253097 -0.015489918 -0.010505385 -0.99749202 0.069995791 0
0.0048743999 0.0083040055 -0.001550119 -0.59269363 -0.57621121 0.56275648 0
0.022956301 0.016665906 -0.002321119 0.45867676 0.86820817 0.18928842 0
-0.024531599 -0.019756796 -0.0062400186 -0.90802646 -0.35956079 -0.2149511 0
-0.025926 0.020113202 -0.012142219 -0.91350251 -0.017344689 0.40646324 0
0.0158781 -0.020223295 -0.0016806197 0.38275698 -0.895513 0.22705409 0
-0.023136901 0.0067869043 -7.5918811e-05 -0.01691214 0.029497419 0.99942172 0
-0.007458901 0.024253804 0.0033560805 0.81133634 -0.24756208 0.52957177 0
-0.020154599 -0.00079799606 9.0280919e-05 0.1119798 0.0093906214 0.99366605 0
0.034342799 0.010833306 -0.019743918 0.43657166 0.89955145 -0.014571172 0
0.031773899 -0.008630394 -0.0059130187 0.7718206 -0.62994695 -0.086369358 0
-0.014465701 0.022249805 0.0050678807 -0.0026909814 -0.056753308 0.99838454 0
0.033456597 -0.005160593 0.00017308071 0.65798622 -0.65906006 0.36427194 0
-0.0256737 -0.0059588961 -0.002282419 -0.99461061 -0.018462583 0.10202395 0
-0.0098598003 -0.010436996 0.00052768103 -0.17994858 0.28820416 0.94050878 0
-0.0049949996 -0.0081671951 -9.8119679e-05 0.36638635 0.54886651 0.7513364 0
0.01308 -0.0040601948 7.4811278e-06 -0.18682347 -0.23583214 0.95366669 0
-0.0026162984 -0.029877296 -0.0098073184 0.42224109 -0.84077418 0.33883801 0
0.036472201 0.0093933064 -0.012320419 0.69338733 0.60402805 0.392892 0
-0.0052338019 0.033490505 -0.018967818 0.60144377 0.79357272 -0.092237242 0
-0.0076751988 -0.023561096 0.0031781807 0.88123691 -0.079758376 0.46589711 0
0.0011385008 -0.015562195 -0.00013891942 0.02631329 0.0098116603 0.99960554 0
0.025968 -0.014637294 -0.001008619 0.46125698 -0.76932627 0.4420172 0
-0.0229731 -0.023856595 -0.0056649186 -0.93621093 -0.34697425 0.055839319 0
0.028103702 -0.0023132937 0.0049136807 -0.018616859 -0.078387856 0.99674904 0
0.0044915997 0.010572905 -0.00021541938 0.092662983 -0.14605829 0.98492664 0
-0.0061295992 -0.0092393951 0.0005957812 0.07618054 0.34708101 0.93473595 0
0.0169458 0.0078015057 -0.00011881963 -0.072237603 0.027966814 0.99699527 0
-0.0023880014 0.029466003 0.0002888806 0.21123688 0.5879336 0.78084123 0
-0.025757099 0.016996803 -0.019508418 -0.99328339 -0.10893428 0.039005667 0
-0.0046848012 0.029440805 0.0031808808 0.92816651 0.17910655 0.32623261 0
-0.015546001 0.037792802 -0.014119818 -0.25521499 0.95450759 0.15420945 0
0.0207786 0.016978806 -0.015879318 0.260322 0.92245573 0.28514525 0
0.0390177 0.0069141067 -0.012794718 0.73397583 0.48579112 0.47464374 0
0.030596999 -0.0098375939 -0.0010032188 0.72183007 -0.4419181 0.53260648 0
-0.016989298 -0.016060797 0.00086788123 -0.36415237 0.31023872 0.87814862 0
0.0018578987 0.028558806 -0.0064578182 0.54321206 0.83203447 -0.11242449 0
-0.0179529 0.0066513047 -3.2719596e-05 -0.019629734 0.036776215 0.99913067 0
-0.0219741 -0.023696994 -0.010397417 -0.00089506822 0.089371562 -0.99599797 0
0.017319301 -0.013907094 -9.2418864e-05 -0.0017359279 -0.023880228 0.9997133 0
0.0229467 -0.0021653941 0.004351181 -0.23940031 -0.10679429 0.96502972 0
0.017205 0.011673305 -0.00013831929 -0.044464447 0.057213996 0.9973712 0
0.0195207 -0.008297394 -9.0619549e-05 -0.035410266 -0.015899317 0.99924636 0
0.038537703 0.0078492071 -0.018177018 0.81054097 0.5769031 -0.10102582 0
0.004274399 0.025938304 -0.014272518 0.73120034 0.67041391 0.12606059 0
0.027979499 0.013934106 -0.014786717 0.38871354 0.91668338 0.092701077 0
-0.0156177 0.032803804 -0.002342419 -0.16620584 0.97527128 0.14567639 0
-0.025604701 -0.0076871961 -0.0024936195 -0.99751943 0.00022690219 0.070392095 0
0.0347142 0.00040170635 0.0031109813 0.92531806 -0.18773507 0.3294574 0
0.0170934 -0.011010895 0.00015208125 0.011160952 0.054304659 0.99846202 0
-0.014576999 -0.031996794 -0.0084120184 -0.26429567 -0.94359213 -0.19945362 0
-0.0013061988 -0.030305697 -0.00093391945 0.47618249 -0.75648761 0.44830421 0
0.016526701 0.010593905 -0.00011791885 -0.052341577 0.026421085 0.99827963 0
-0.0234813 -0.022633495 -0.0086613186 -0.88830888 -0.13910195 0.43767342 0
-0.0087318011 0.026867105 0.0045161806 0.31297591 0.16943455 0.93452555 0
-0.015513899 -0.012942296 0.00024448111 -0.088691086 0.17554782 0.98046762 0
-0.014640901 0.032845803 -0.0016458191 -0.0078069102 0.97831935 0.20695475 0
-0.0240783 -0.020518195 -0.0011055194 -0.9428255 -0.22411807 0.24668032 0
0.0190506 -0.017520595 -8.5518885e-05 0.23595986 -0.23699394 0.94242072 0
-0.019511102 0.030695403 -0.0054522185 -0.73873878 0.66930002 -0.079388715 2.8978852e-42
-0.0011859005 0.011831705 9.4480813e-05 0.061380651 -0.035709504 0.99747539 1.7886501e+28
-0.0090063 -0.00026819555 -0.0046530184 0.99744445 0.00041837982 0.071444452 0
0.012477598 0.023362204 -0.013795217 0.25344867 0.96638656 0.043137413 0
0.040527601 0.0036780066 -0.019547718 0.95250642 0.28427115 -0.10918555 0
0.011291699 -0.012407995 -0.00010351874 0.030286785 -0.035743956 0.99890196 0
0.0319902 -0.011453995 -0.012208818 0.28948224 -0.86692804 0.40575346 0
0.038437199 0.0079431068 -0.019189818 0.80252391 0.58579659 -0.11312743 0
0.016291199 0.0026343055 0.0020831812 -0.34348479 0.40714845 0.84631455 0
-0.024498899 -0.024641696 -0.0097293183 -0.66820467 -0.11665908 0.73477417 0
0.020624099 0.017584806 -0.0076992186 0.50456375 0.82869905 -0.24222578 0
-0.0087945005 -0.0036515954 -0.0069498187 0.89288467 0.38687479 0.2304018 0
0.035265598 0.0038301065 -0.0062412187 0.89769167 0.43927076 -0.034509707 0
-0.00080249936 -0.015252896 -0.00010891892 -0.021620728 0.017611431 0.99961108 0
0.0068991003 -0.0064061941 -0.00052921881 -0.28628698 0.23345983 0.92926651 0
-0.023529902 0.032357406 -0.012437718 -0.56817085 0.48237112 0.66670829 0
0.0176166 0.0011064055 0.0028442803 -0.21935354 0.14285794 0.96512979 0
0.0326286 0.011706005 -0.015000018 0.41644779 0.9087646 0.026798235 0
0.0361914 -0.0011870936 -0.0034719196 0.99179256 -0.12019302 0.043602794 0
-0.017797198 -0.035282698 -0.012508818 -0.32065716 -0.64586037 0.69285148 0
0.027146701 -0.014208294 -0.016594818 0.40547627 -0.91380072 -0.02360764 0
0.012390599 0.023336405 -0.014799618 0.47163746 0.83460814 -0.28458291 0
-0.0126135 -0.014808595 0.0022388813 -0.25128558 0.64075905 0.72545397 0
0.022857599 0.016018206 -0.014197218 0.26984599 0.90222263 0.33641863 0
0.010692899 0.023357404 -0.014701518 -0.043353487 0.99087936 -0.12758757 0
0.036957599 0.0021498066 -0.011678118 0.26886255 -0.065835081 0.96092594 0
0.0095709004 -0.022852195 -0.011702118 0.28383395 -0.94412476 0.16753133 0
0.0363102 -0.00043379355 -0.0044823186 0.99775505 -0.066903293 -0.0029597301 0
0.0089138998 -0.003297895 -0.0065625184 -0.93781412 0.34702179 0.008975164 0
0.019395601 -0.018482395 -0.0044325185 0.51529819 -0.85470778 0.062789947 0
-0.021448197 -0.032927997 -0.012283518 -0.40163469 -0.41742074 0.81513762 0
0.016296601 0.00039810553 0.002712281 -0.31053653 0.010276397 0.95050585 0
-0.020291401 0.011661003 -0.00012751893 -0.017175162 -0.0046941694 0.99984145 0
-0.017211601 0.018223204 0.00080218056 -0.52304924 -0.74962753 0.40555894 0
-0.0090246005 0.017370304 0.0034160805 0.16127621 -0.21945648 0.96219993 0
-0.0035808005 0.015221105 0.00018388107 0.0056475927 0.12085985 0.99265355 0
-0.02469 0.015055804 -0.011131218 -0.98863691 -0.12272754 0.086805433 0
0.0055328989 0.025716005 -0.018777018 0.53724045 0.83305293 0.13189141 0
0.0003398993 0.015921606 -0.00012481883 0.11743124 0.092275217 0.98878473 0
-0.0159576 0.0082035046 -4.4719131e-05 -0.0039434657 0.045110907 0.99897414 0
0.0055418988 0.026645105 -0.0050262185 0.4244692 0.90367514 -0.056542326 0
-0.0121203 0.0072177043 0.00011638105 0.027891234 -0.0076057306 0.99958199 0
-0.017715601 0.035052307 -0.011545518 -0.17096697 0.56076944 0.81012827 0
0.0029960989 0.027618604 -0.014225418 0.64759195 0.73144871 0.21355893 0
0.0318891 0.0083928062 -0.0036150187 0.74687636 0.66327775 0.04731153 0
-0.019664697 -0.028983895 -0.010795818 -0.57740742 -0.55373073 0.59998584 0
0.0262662 0.011451005 -6.9919603e-05 0.019694511 0.014131681 0.99970615 0
0.0067236004 -0.017345697 -4.9818678e-05 -0.0052893548 -0.034482859 0.99939132 0
0.0038909987 0.027337804 -0.0060408185 0.48868513 0.86220908 -0.13335037 0
0.0053124009 -0.024856497 -0.013440318 0.56635195 -0.81793433 0.10113817 0
0.019904699 0.0031791055 0.0029309806 -0.37109441 0.52246702 0.76766998 0
-0.024683099 0.010362604 -0.013754117 -0.94525719 -0.13307497 0.29795948 0
-0.0115047 0.036991805 -0.012664218 0.3612864 0.86267507 0.35392636 0
-0.021911101 0.028545903 -0.0096996184 -0.12419641 0.82894695 0.54536432 0
0.0257634 0.004579206 0.0042749806 -0.22129519 0.46569252 0.85683072 0
-0.018069901 0.030548705 0.0013226811 -0.48586795 0.67542142 0.55474156 0
0.0177441 0.019532105 -0.0071379188 0.53717369 0.84194803 -0.050675455 0
0.037495501 -0.00041639351 -0.011950218 0.066572323 0.12255469 0.99022645 0
-0.0085982997 -0.017470496 0.0034328811 0.15594247 0.17832571 0.97153574 0
0.034549501 0.010726506 -0.015667217 0.46271485 0.88650221 -0.0029580889 0
0.0309249 -0.011300694 -0.011325018 0.24984284 -0.77531493 0.58005625 0
-0.020679003 0.030626103 -0.011052919 -0.053386286 0.27896905 0.95881492 0
-0.023546999 -0.021639895 -0.00020581931 -0.81379426 -0.18719769 0.55017823 0
-0.0265713 0.024377702 -0.019840516 -0.99782306 -0.05969841 0.028023193 0
-0.0209505 -0.014843697 0.00017818138 -0.068399653 0.15233359 0.98595941 0
0.0269718 0.013022405 -0.0097803185 0.53810698 0.8319329 0.13538294 0
-0.014053499 -0.024275996 0.0050246804 -0.030898806 0.0045250095 0.99951226 0
-0.012088499 -0.034161896 -0.010306518 -0.16069947 -0.50999141 0.84503514 0
-0.0204405 -0.0039446959 0.00012268088 0.01747562 0.0099231321 0.99979806 0
-0.0247638 -0.025349095 -0.010279219 -0.71164066 -0.1415143 0.68814331 0
0.034675501 0.0049875067 -0.0072597181 0.8790043 0.47658145 0.014887156 0
-0.0066725989 -0.031067394 -0.0005946189 -0.009194768 -0.60972703 0.79255819 0
-0.0021987006 0.0087168049 -0.0056238184 0.48593262 -0.86723977 0.10846568 0
-0.025629001 -0.0015482962 -0.0017928187 -0.98495865 0.029887088 0.17018583 0
-0.0122454 -0.010211395 6.0880557e-05 -0.076070361 0.13242941 0.98826897 0
-0.025585501 -0.004987496 -0.0010938194 -0.88973415 0.038261261 0.45487267 0
-0.00014159871 -0.029704796 -0.002484319 0.46977803 -0.88011509 0.068600468 0
-0.018783299 0.0038460039 0.00015748144 -0.0091812313 0.027160803 0.99958885 0
-0.023943599 -0.018330596 3.8813801e-06 -0.59710705 -0.23278308 0.76764268 0
0.035297699 -0.0029102934 -0.007798519 0.91254497 -0.36131358 -0.19160944 0
-0.0238494 0.0075972038 -4.7718735e-05 -0.1224394 -0.017820833 0.99231595 0
-0.0046343994 -0.015246895 0.00045448131 0.47112277 -0.28432035 0.83498812 0
-0.012526799 -0.016346095 -0.0097140176 0.00097825099 0.065601118 0.99784541 0
0.0057804007 -0.0081377951 -0.0089235185 -0.55974776 0.82305771 -0.096221268 0
-0.0021794995 -0.011321096 3.5980716e-05 0.20318745 0.070805691 0.97657639 0
-0.024277199 -0.010091696 -0.012667218 -0.97475904 0.14841941 0.16678289 0
-0.021165602 0.028421704 -0.0042546187 -0.79912198 0.57282692 -0.18240982 1.1479437e-41
-0.0078609018 0.031892106 -0.00090781937 0.14652328 0.93489879 0.32325703 4.8221775e+30
-0.004343099 -0.026648996 -0.00011971928 -0.025709003 -0.030892568 0.999192 0
0.0146949 0.0028206054 0.001020281 -0.36076751 0.42747334 0.82892293 0
-0.018668098 -0.019216496 0.0022592805 -0.21905544 0.79265654 0.56895536 0
0.025501201 0.012177306 -8.7319313e-05 0.03593393 -0.02098052 0.99913388 0
0.036039598 0.0015375065 -0.0073983185 0.97001517 0.18645658 -0.15589949 0
-0.011491202 0.032756403 -0.0079923188 0.13980877 0.94875705 0.28339666 0
0.025520999 -0.008003694 0.00013108067 -0.16860341 -0.31645247 0.93350452 0
-0.015188099 -0.037140597 -0.016317017 -0.024207043 -0.9997052 0.0019123151 0
0.015298501 -0.020737495 -0.0027879192 0.49995983 -0.86310339 0.071363628 0
-0.0237657 -0.014315097 -9.8119679e-05 -0.21604425 0.070548639 0.97383142 0
-0.0078648021 0.034713306 -0.011724918 0.45462129 0.74155432 0.49337271 0
0.0107235 0.0090438062 3.4780427e-05 -0.0010751712 -0.055968605 0.99843192 0
0.0268896 0.0064218063 0.0026204814 -0.20712718 0.8364628 0.50737393 0
-0.0112788 0.00020610436 5.3681062e-05 0.065670133 -0.052434601 0.9964627 0
0.027713699 -0.012232495 -0.0094209183 0.65537477 -0.74039942 -0.14930728 0
0.0025595997 0.0090774046 -0.0091632186 -0.35297441 -0.93557721 -0.010212393 0
0.025629001 -0.014176195 -0.012657317 0.2802428 -0.92233831 0.26600003 0
-0.0243426 0.0087009035 -0.013914318 -0.96556479 -0.18835659 0.17946194 0
0.0273984 0.011434206 -0.00012841859 0.21297434 0.14023921 0.96694094 0
0.0284514 0.0092724059 5.9081241e-05 0.077732258 0.22459427 0.97134703 0
-0.020169903 0.028908605 -0.0097584184 -0.60564268 0.7843287 0.13425955 0
-0.0188049 -0.0063104955 4.4080989e-05 -0.017850263 0.016474374 0.9997049 0
0.025089301 0.014351706 -0.012582618 0.40439698 0.87414968 0.26893386 0
0.0088338004 -0.00073499477 -0.0022539194 -0.99957979 0.026083039 0.012647741 0
-0.024236999 0.0071901036 -0.011099119 -0.99818575 -0.0050250338 -0.060000122 0
0.018939601 0.017401505 -0.00014761873 0.16131072 0.29860321 0.94064599 0
0.022509299 -0.016366495 -0.00051781943 0.35649562 -0.74490356 0.56394106 0
0.0096795 -0.0011645948 6.2680992e-05 -0.52208614 0.012905144 0.85279506 0
0.023993701 0.0057105063 0.00052798056 -0.19042699 0.75173324 0.63137519 0
0.031336199 0.0089487061 -0.0058134189 0.69575274 0.71637934 -0.052237589 0
-0.019474803 0.036958504 -0.016750818 -0.32592481 0.94434136 -0.044638339 0
-0.0176652 0.027115203 0.0047594802 -0.34519327 0.21017876 0.91469479 0
-0.0072960006 0.012465605 0.0020678802 0.19856644 -0.29895037 0.93338096 0
-0.0092694005 0.012193505 -0.010572619 0.15263154 -0.052943058 0.98686397 0
0.019567801 -0.0036440943 0.0030770805 -0.40552917 -0.54790211 0.73167568 0
-0.025589701 -0.022894798 -0.011288718 -0.86672384 0.038017921 0.49733746 0
0.033566698 0.011187905 -0.018034216 0.40343103 0.9150095 -0.0010315304 0
0.036012899 0.0015579065 -0.0014391191 0.97998106 0.1160174 0.16179369 0
0.036590099 0.0097554056 -0.014829918 0.56593364 0.82421434 0.019745946 0
-0.0045152996 -0.0077018952 -0.00078871922 0.41278589 0.66756654 0.61964715 0
-0.0108882 0.037143003 -0.016009817 0.37390167 0.92573518 0.056674972 0
-0.025632599 0.015959704 -0.0044745188 -0.99859291 0.038885318 -0.03605812 0
0.033312 0.0068445066 -0.0048012184 0.77982908 0.62058401 0.082110889 0
-0.025598099 0.0077970037 -0.0030171187 -0.99961972 0.0016401852 0.027528433 0
-0.0028547989 -0.024715796 -9.3019007e-05 -0.021099009 0.0025482194 0.99977416 0
-0.026568299 -0.025506899 -0.014025019 -0.99275136 -0.011635872 0.11962142 0
-0.0260625 -0.018217197 -0.017499918 -0.99356759 0.089604586 -0.069241956 0
0.025952699 -0.014619894 -0.0024117194 0.57497329 -0.81718624 0.040156625 0
0.025597502 -0.014731495 -0.0073098186 0.53498113 -0.81305587 -0.22964182 0
0.011640901 -0.023042995 -0.0030942187 0.49444228 -0.86901659 0.018357692 0
-0.0022302014 0.031369805 -0.016308617 0.59255475 0.80391759 -0.050943896 0
-0.0086013004 -0.0017078954 -0.00077041873 0.85485548 0.12029579 0.50472873 0
0.0015653993 0.015034204 -0.00013951957 0.077316143 0.056852486 0.99538434 0
-0.0123255 -0.0012728956 -6.9018824e-05 0.076689392 -0.060667109 0.99520761 0
0.0288513 -0.012134095 -0.002117719 0.66441447 -0.71983796 0.20096485 0
-0.022524901 0.017931603 6.5981221e-05 -0.047185596 -0.038170852 0.99815649 0
0.027958799 0.013312805 -0.0051522185 0.71225065 0.6997667 -0.05500602 0
-0.020836202 0.028440604 -0.0061992188 -0.81833422 0.57250869 -0.050623722 0
-0.0215811 0.010872903 -3.0619653e-05 0.017693823 0.043133665 0.99891257 0
-0.026165102 -0.018989697 -0.016991118 -0.99691021 0.067262724 -0.040567841 0
-0.00094800134 0.030218104 -0.0018288195 0.38117424 0.89171779 0.24401952 0
0.040309504 0.0046401066 -0.019211117 0.91547585 0.38676304 -0.11098828 0
0.0327456 -0.008630693 -0.0097023193 0.37178034 -0.54357576 0.75253224 0
0.0396627 0.0050820066 -0.012757518 0.80455184 0.1350341 0.57832706 0
0.027744301 0.013162506 -0.011859318 0.37856027 0.81117618 0.44574115 0
-0.011795099 -0.036878098 -0.014827218 0.20437978 -0.97610557 0.073802121 0
-0.013272301 0.030249005 0.004008281 0.072817318 0.64924258 0.75708765 0
-0.0062955003 0.017379304 0.0010013804 0.8126691 0.12651189 0.56882662 0
-0.0064778998 -0.0064922953 -0.0050994186 0.58475971 0.8053596 -0.09722162 0
-0.0026655013 0.030211806 -0.010959919 0.5364719 0.81187701 0.23033366 0
-0.025681801 -0.0078653963 -0.0038064183 -0.99991447 -0.011192128 -0.006775076 0
-0.0166701 0.0091029042 -2.8819219e-05 0.014379978 -0.026803253 0.99953723 0
0.006878701 -0.025437895 -0.0015621197 0.50554538 -0.85038263 0.14585416 0
0.023532001 0.016233306 -0.0015780196 0.40238905 0.87871373 0.25679812 0
-0.010560001 0.036779404 -0.013391717 0.40021944 0.89214051 0.20954661 0
0.023523599 0.015591306 -0.00038761942 0.35279086 0.5756073 0.73770911 0
-0.022347301 -0.025472395 -0.0034992187 -0.94369942 -0.31945133 0.085920215 0
-0.0244551 0.011844004 -0.012704718 -0.96386462 -0.086075194 0.25210339 0
-0.0025632004 0.010228204 3.3880769e-05 0.13813679 -0.3999393 0.90607208 0
0.016949398 0.017511006 -0.00016651936 0.061640363 0.014752319 0.99798936 0
0.0017205009 -0.017789096 -0.0001029186 0.030351589 -0.030976512 0.99905914 0
0.018290099 0.0093459059 1.6481057e-05 -0.0044373902 0.024971496 0.99967825 0
-0.021127798 -0.032020494 -0.011883617 -0.25576112 -0.25313187 0.93301147 0
0.0349872 -0.0037130939 -0.0075270184 0.89209318 -0.43121818 -0.13498385 0
-0.0083775017 0.033821106 -0.010622118 0.35302606 0.66637135 0.65675098 0
0.026208 0.013440605 -0.010608018 0.49067318 0.87037241 0.041130319 -2.1772561e-28
-0.019909199 -0.015116696 0.00022018142 0.080905646 0.11094436 0.99052793 7.5261016e+28
0.003341099 0.026443204 9.8981334e-05 0.43504509 0.599446 0.67186332 0
